ply
format ascii 1.0
comment Created by Open3D
element vertex 3238
property double x
property double y
property double z
end_header
20 29 -40.9305
21 29 -40.9305
22 29 -40.9305
23 29 -40.9305
24 29 -40.9305
25 29 -40.9305
26 29 -40.9305
27 29 -40.9305
28 29 -40.9305
29 29 -40.9305
30 29 -40.9305
31 29 -40.9305
32 29 -40.9305
33 29 -40.9305
34 29 -40.9305
35 29 -40.9305
40 29 -3.62948
41 29 -2.72017
42 29 -2.08585
43 29 -1.59192
44 29 -1.31384
45 29 -1.20786
46 29 -1.2356
47 29 -1.41036
48 29 -1.70711
49 29 -2.15181
50 29 -2.72833
51 29 -3.24394
52 29 -3.68674
53 29 -4.06578
54 29 -4.29015
55 29 -3.958
56 29 -2.8332
61 29 3.91082
62 29 4.86033
63 29 5.56672
64 29 5.95197
65 29 6.14836
66 29 6.47349
67 29 6.79364
68 29 7.03834
69 29 7.15999
70 29 7.18868
71 29 7.1667
72 29 7.14589
73 29 7.1305
74 29 7.18413
75 29 7.23412
76 29 7.207
77 29 7.16207
78 29 7.11392
79 29 7.06528
80 29 7.00279
81 29 6.82086
82 29 6.53022
83 29 6.2824
84 29 5.87422
85 29 5.12315
86 29 4.53053
87 29 4.19686
88 29 3.71309
89 29 3.16121
90 29 2.63089
91 29 2.19679
92 29 1.86044
93 29 1.29996
94 29 0.422503
95 29 -0.0080521
96 29 -0.419288
97 29 -1.24388
98 29 -1.86421
99 29 -2.25817
100 29 -2.85548
101 29 -3.86084
102 29 -5.14762
103 29 -5.4092
104 29 -5.21864
105 29 -5.0354
106 29 -4.89807
107 29 -4.90775
108 29 -5.04005
109 29 -5.36755
110 29 -5.8336
111 29 -6.31305
114 29 -40.9305
115 29 -40.9305
116 29 -40.9305
117 29 -40.9305
118 29 -40.9305
1 30 -40.9305
2 30 -40.9305
3 30 -40.9305
4 30 -40.9305
5 30 -40.9305
6 30 -40.9305
7 30 -40.9305
8 30 -40.9305
9 30 -40.9305
10 30 -40.9305
11 30 -40.9305
12 30 -40.9305
13 30 -40.9305
14 30 -40.9305
15 30 -40.9305
16 30 -40.9305
17 30 -40.9305
18 30 -40.9305
19 30 -40.9305
20 30 -40.9305
21 30 -40.9305
22 30 -40.9305
23 30 -40.9305
24 30 -40.9305
25 30 -40.9305
26 30 -40.9305
27 30 -40.9305
28 30 -40.9305
29 30 -40.9305
30 30 -40.9305
31 30 -40.9305
32 30 -40.9305
33 30 -40.9305
39 30 -4.40699
40 30 -3.43799
41 30 -2.6101
42 30 -1.94846
43 30 -1.44744
44 30 -1.16136
45 30 -1.10475
46 30 -1.15772
47 30 -1.28543
48 30 -1.53673
49 30 -1.96842
50 30 -2.59224
51 30 -3.18881
52 30 -3.61936
53 30 -3.97366
54 30 -4.21832
55 30 -3.89481
56 30 -2.76598
61 30 4.26651
62 30 5.08879
63 30 5.74505
64 30 6.03317
65 30 6.09574
66 30 6.2858
67 30 6.66219
68 30 6.93236
69 30 7.07295
70 30 7.11068
71 30 7.1121
72 30 7.10746
73 30 7.11907
74 30 7.15793
75 30 7.15958
76 30 7.13062
77 30 7.07674
78 30 7.01172
79 30 6.95077
80 30 6.87053
81 30 6.68424
82 30 6.43266
83 30 6.23775
84 30 5.87767
85 30 5.25745
86 30 4.75856
87 30 4.4731
88 30 3.93673
89 30 3.29754
90 30 2.74679
91 30 2.13146
92 30 1.6601
93 30 1.10529
94 30 0.361182
95 30 -0.0507416
96 30 -0.462945
97 30 -1.1402
98 30 -1.85017
99 30 -2.25607
100 30 -2.74925
101 30 -3.67584
102 30 -5.04217
103 30 -5.69361
104 30 -5.66319
105 30 -5.41389
106 30 -5.20948
107 30 -5.15534
108 30 -5.26717
109 30 -5.52148
110 30 -5.91091
111 30 -6.44554
112 30 -7.23511
114 30 -40.9305
115 30 -40.9305
116 30 -40.9305
117 30 -40.9305
118 30 -40.9305
1 31 -40.9305
2 31 -40.9305
3 31 -40.9305
4 31 -40.9305
5 31 -40.9305
6 31 -40.9305
7 31 -40.9305
8 31 -40.9305
9 31 -40.9305
10 31 -40.9305
11 31 -40.9305
12 31 -40.9305
13 31 -40.9305
14 31 -40.9305
15 31 -40.9305
16 31 -40.9305
17 31 -40.9305
18 31 -40.9305
19 31 -40.9305
20 31 -40.9305
21 31 -40.9305
22 31 -40.9305
23 31 -40.9305
24 31 -40.9305
25 31 -40.9305
26 31 -40.9305
27 31 -40.9305
28 31 -40.9305
29 31 -40.9305
30 31 -40.9305
39 31 -4.1689
40 31 -3.27597
41 31 -2.50569
42 31 -1.85321
43 31 -1.34759
44 31 -1.11222
45 31 -1.08665
46 31 -1.15819
47 31 -1.25125
48 31 -1.45351
49 31 -1.86071
50 31 -2.47872
51 31 -3.08178
52 31 -3.54805
53 31 -3.91747
54 31 -4.10084
55 31 -3.73433
61 31 4.67407
62 31 5.36886
63 31 5.95396
64 31 6.15451
65 31 6.08786
66 31 6.13616
67 31 6.47132
68 31 6.80771
69 31 6.95497
70 31 7.00871
71 31 7.05508
72 31 7.0803
73 31 7.09813
74 31 7.1217
75 31 7.11567
76 31 7.06706
77 31 6.99041
78 31 6.90547
79 31 6.82602
80 31 6.72018
81 31 6.5394
82 31 6.31919
83 31 6.17883
84 31 5.87246
85 31 5.37848
86 31 4.99472
87 31 4.67399
88 31 4.06922
89 31 3.37937
90 31 2.83649
91 31 2.21473
92 31 1.56751
93 31 0.944739
94 31 0.29078
95 31 -0.139455
96 31 -0.548776
97 31 -1.1288
98 31 -1.87097
99 31 -2.31877
100 31 -2.74654
101 31 -3.54418
102 31 -4.77248
103 31 -5.92651
104 31 -6.10061
105 31 -5.85878
106 31 -5.62663
107 31 -5.50917
108 31 -5.56835
109 31 -5.75522
110 31 -6.0855
111 31 -6.57545
112 31 -7.26245
114 31 -40.9305
115 31 -40.9305
116 31 -40.9305
117 31 -40.9305
118 31 -40.9305
1 32 -40.9305
2 32 -40.9305
3 32 -40.9305
4 32 -40.9305
5 32 -40.9305
6 32 -40.9305
7 32 -40.9305
8 32 -40.9305
9 32 -40.9305
10 32 -40.9305
11 32 -40.9305
12 32 -40.9305
13 32 -40.9305
14 32 -40.9305
15 32 -40.9305
16 32 -40.9305
17 32 -40.9305
18 32 -40.9305
19 32 -40.9305
20 32 -40.9305
21 32 -40.9305
22 32 -40.9305
23 32 -40.9305
24 32 -40.9305
25 32 -40.9305
26 32 -40.9305
27 32 -40.9305
37 32 -5.29587
38 32 -4.54482
39 32 -3.87403
40 32 -3.07448
41 32 -2.39439
42 32 -1.79619
43 32 -1.33895
44 32 -1.11712
45 32 -1.07291
46 32 -1.16532
47 32 -1.27498
48 32 -1.44143
49 32 -1.82843
50 32 -2.37739
51 32 -2.95906
52 32 -3.44489
53 32 -3.80233
54 32 -3.93705
55 32 -3.53482
61 32 5.04474
62 32 5.65454
63 32 6.16049
64 32 6.37134
65 32 6.14212
66 32 6.07216
67 32 6.36302
68 32 6.70815
69 32 6.85664
70 32 6.9527
71 32 7.03069
72 32 7.09342
73 32 7.12978
74 32 7.15726
75 32 7.12252
76 32 7.04803
77 32 6.92774
78 32 6.80469
79 32 6.71421
80 32 6.60568
81 32 6.45016
82 32 6.2668
83 32 6.14634
84 32 5.89025
85 32 5.48127
86 32 5.10835
87 32 4.69848
88 32 4.12854
89 32 3.47225
90 32 2.94865
91 32 2.34254
92 32 1.59473
93 32 0.81733
94 32 0.197135
95 32 -0.255098
96 32 -0.67017
97 32 -1.20199
98 32 -1.91867
99 32 -2.40856
100 32 -2.83198
101 32 -3.49262
102 32 -4.63274
103 32 -6.0326
104 32 -6.46757
105 32 -6.32317
106 32 -6.05152
107 32 -5.88781
108 32 -5.89227
109 32 -6.0504
110 32 -6.35317
111 32 -6.78618
112 32 -7.40755
115 32 -40.9305
116 32 -40.9305
117 32 -40.9305
118 32 -40.9305
1 33 -40.9305
2 33 -40.9305
3 33 -40.9305
4 33 -40.9305
5 33 -40.9305
6 33 -40.9305
7 33 -40.9305
8 33 -40.9305
9 33 -40.9305
10 33 -40.9305
11 33 -40.9305
12 33 -40.9305
13 33 -40.9305
14 33 -40.9305
15 33 -40.9305
16 33 -40.9305
17 33 -40.9305
18 33 -40.9305
19 33 -40.9305
20 33 -40.9305
21 33 -40.9305
22 33 -40.9305
23 33 -40.9305
24 33 -40.9305
25 33 -40.9305
33 33 -5.58269
34 33 -5.23488
35 33 -4.87549
36 33 -4.66512
37 33 -4.4134
38 33 -4.07749
39 33 -3.44387
40 33 -2.78051
41 33 -2.22049
42 33 -1.73544
43 33 -1.33117
44 33 -1.09912
45 33 -1.07222
46 33 -1.19317
47 33 -1.31608
48 33 -1.45323
49 33 -1.77569
50 33 -2.25012
51 33 -2.81793
52 33 -3.33398
53 33 -3.6651
54 33 -3.76708
55 33 -3.32428
60 33 4.46172
61 33 5.29504
62 33 5.84766
63 33 6.30974
64 33 6.47101
65 33 6.25536
66 33 6.1037
67 33 6.46564
68 33 6.76823
69 33 6.9788
70 33 7.15706
71 33 7.28056
72 33 7.37591
73 33 7.39351
74 33 7.37732
75 33 7.25276
76 33 7.08915
77 33 6.93488
78 33 6.71465
79 33 6.62045
80 33 6.52471
81 33 6.43776
82 33 6.32565
83 33 6.17672
84 33 5.92083
85 33 5.54316
86 33 5.11274
87 33 4.6377
88 33 4.13356
89 33 3.60698
90 33 3.06665
91 33 2.43237
92 33 1.78925
93 33 0.838279
94 33 0.118527
95 33 -0.404107
96 33 -0.8431
97 33 -1.38145
98 33 -1.99406
99 33 -2.51082
100 33 -2.98506
101 33 -3.60734
102 33 -4.68035
103 33 -6.1002
104 33 -6.76445
105 33 -6.74108
106 33 -6.467
107 33 -6.28897
108 33 -6.26877
109 33 -6.40237
110 33 -6.6842
111 33 -7.10696
112 33 -7.68911
115 33 -40.9305
116 33 -40.9305
117 33 -40.9305
118 33 -40.9305
1 34 -40.9305
2 34 -40.9305
3 34 -40.9305
4 34 -40.9305
5 34 -40.9305
6 34 -40.9305
7 34 -40.9305
8 34 -40.9305
9 34 -40.9305
10 34 -40.9305
11 34 -40.9305
12 34 -40.9305
13 34 -40.9305
14 34 -40.9305
15 34 -40.9305
16 34 -40.9305
17 34 -40.9305
18 34 -40.9305
19 34 -40.9305
20 34 -40.9305
21 34 -40.9305
22 34 -40.9305
23 34 -40.9305
24 34 -40.9305
30 34 -5.78311
31 34 -5.36249
32 34 -4.97824
33 34 -4.62312
34 34 -4.32363
35 34 -4.07987
36 34 -3.96258
37 34 -3.90255
38 34 -3.63506
39 34 -3.008
40 34 -2.43606
41 34 -1.97028
42 34 -1.5501
43 34 -1.23003
44 34 -1.06219
45 34 -1.11452
46 34 -1.24721
47 34 -1.36398
48 34 -1.48426
49 34 -1.70352
50 34 -2.13077
51 34 -2.70321
52 34 -3.22871
53 34 -3.55017
54 34 -3.58245
55 34 -3.06688
60 34 4.73731
61 34 5.46611
62 34 6.00088
63 34 6.41912
64 34 6.50337
65 34 6.29577
66 34 6.24191
67 34 6.67081
68 34 6.99718
69 34 7.28251
70 34 7.53317
71 34 7.70296
72 34 7.8029
73 34 7.79985
74 34 7.73215
75 34 7.53275
76 34 7.28916
77 34 7.04949
78 34 6.74115
79 34 6.54673
80 34 6.49904
81 34 6.48422
82 34 6.41379
83 34 6.24101
84 34 5.94401
85 34 5.53841
86 34 5.05537
87 34 4.60281
88 34 4.19443
89 34 3.66945
90 34 3.08409
91 34 2.47253
92 34 1.92806
93 34 1.13069
94 34 0.133508
95 34 -0.522327
96 34 -1.03814
97 34 -1.59406
98 34 -2.0674
99 34 -2.59991
100 34 -3.16136
101 34 -3.79056
102 34 -4.78593
103 34 -6.14366
104 34 -7.02225
105 34 -7.16201
106 34 -6.90299
107 34 -6.71038
108 34 -6.65867
109 34 -6.79845
110 34 -7.07852
111 34 -7.49204
112 34 -8.05729
115 34 -40.9305
116 34 -40.9305
117 34 -40.9305
118 34 -40.9305
1 35 -40.9305
2 35 -40.9305
3 35 -40.9305
4 35 -40.9305
5 35 -40.9305
6 35 -40.9305
7 35 -40.9305
8 35 -40.9305
9 35 -40.9305
10 35 -40.9305
11 35 -40.9305
12 35 -40.9305
13 35 -40.9305
14 35 -40.9305
15 35 -40.9305
16 35 -40.9305
17 35 -40.9305
18 35 -40.9305
19 35 -40.9305
20 35 -40.9305
21 35 -40.9305
22 35 -40.9305
23 35 -40.9305
28 35 -5.96039
29 35 -5.3959
30 35 -4.98784
31 35 -4.62226
32 35 -4.22369
33 35 -3.91047
34 35 -3.72699
35 35 -3.60696
36 35 -3.56049
37 35 -3.54544
38 35 -3.28882
39 35 -2.65605
40 35 -2.11116
41 35 -1.66504
42 35 -1.30651
43 35 -1.08588
44 35 -1.08346
45 35 -1.20182
46 35 -1.31718
47 35 -1.42405
48 35 -1.52219
49 35 -1.69195
50 35 -2.06808
51 35 -2.63001
52 35 -3.11976
53 35 -3.43191
54 35 -3.40569
55 35 -2.74347
60 35 4.947
61 35 5.64653
62 35 6.16715
63 35 6.5194
64 35 6.54015
65 35 6.40611
66 35 6.48975
67 35 6.8728
68 35 7.1684
69 35 7.48511
70 35 7.77638
71 35 7.98453
72 35 8.09997
73 35 8.08577
74 35 7.98706
75 35 7.80442
76 35 7.50183
77 35 7.16933
78 35 6.76562
79 35 6.50256
80 35 6.486
81 35 6.53946
82 35 6.4896
83 35 6.29423
84 35 5.9773
85 35 5.518
86 35 4.98539
87 35 4.62446
88 35 4.25448
89 35 3.63748
90 35 3.02538
91 35 2.54855
92 35 2.10972
93 35 1.45475
94 35 0.310572
95 35 -0.608867
96 35 -1.19909
97 35 -1.79786
98 35 -2.20015
99 35 -2.66014
100 35 -3.29928
101 35 -3.96975
102 35 -4.9223
103 35 -6.14594
104 35 -7.2446
105 35 -7.59665
106 35 -7.39404
107 35 -7.16669
108 35 -7.10527
109 35 -7.25112
110 35 -7.51718
111 35 -7.95181
112 35 -8.53266
114 35 -40.9305
115 35 -40.9305
116 35 -40.9305
117 35 -40.9305
118 35 -40.9305
1 36 -40.9305
2 36 -40.9305
3 36 -40.9305
4 36 -40.9305
5 36 -40.9305
6 36 -40.9305
7 36 -40.9305
8 36 -40.9305
9 36 -40.9305
10 36 -40.9305
11 36 -40.9305
12 36 -40.9305
13 36 -40.9305
14 36 -40.9305
15 36 -40.9305
16 36 -40.9305
17 36 -40.9305
18 36 -40.9305
19 36 -40.9305
20 36 -40.9305
21 36 -40.9305
22 36 -40.9305
27 36 -5.77137
28 36 -5.18386
29 36 -4.71524
30 36 -4.33293
31 36 -3.91454
32 36 -3.55397
33 36 -3.36755
34 36 -3.25063
35 36 -3.15216
36 36 -3.11015
37 36 -3.07582
38 36 -2.87538
39 36 -2.34779
40 36 -1.81507
41 36 -1.3941
42 36 -1.09536
43 36 -1.05662
44 36 -1.18211
45 36 -1.2921
46 36 -1.39565
47 36 -1.49285
48 36 -1.58142
49 36 -1.71725
50 36 -2.05635
51 36 -2.58385
52 36 -3.03962
53 36 -3.30857
54 36 -3.20307
55 36 -2.38315
59 36 4.25243
60 36 5.16058
61 36 5.81276
62 36 6.31767
63 36 6.59103
64 36 6.61305
65 36 6.64292
66 36 6.81607
67 36 7.04448
68 36 7.2664
69 36 7.54417
70 36 7.83086
71 36 8.07001
72 36 8.13696
73 36 8.13219
74 36 8.09994
75 36 7.94886
76 36 7.67004
77 36 7.27278
78 36 6.76283
79 36 6.45106
80 36 6.44869
81 36 6.48795
82 36 6.47529
83 36 6.31776
84 36 5.99158
85 36 5.46044
86 36 4.98125
87 36 4.68944
88 36 4.28424
89 36 3.59024
90 36 3.07956
91 36 2.72472
92 36 2.29688
93 36 1.60865
94 36 0.648657
95 36 -0.580499
96 36 -1.25705
97 36 -1.8984
98 36 -2.35302
99 36 -2.75465
100 36 -3.3487
101 36 -4.11154
102 36 -5.03206
103 36 -6.1202
104 36 -7.45798
105 36 -7.95863
106 36 -7.83038
107 36 -7.66974
108 36 -7.61203
109 36 -7.76321
110 36 -8.05015
111 36 -8.46303
114 36 -40.9305
115 36 -40.9305
116 36 -40.9305
117 36 -40.9305
118 36 -40.9305
1 37 -40.9305
2 37 -40.9305
3 37 -40.9305
4 37 -40.9305
5 37 -40.9305
6 37 -40.9305
7 37 -40.9305
8 37 -40.9305
9 37 -40.9305
10 37 -40.9305
11 37 -40.9305
12 37 -40.9305
13 37 -40.9305
14 37 -40.9305
15 37 -40.9305
16 37 -40.9305
17 37 -40.9305
18 37 -40.9305
19 37 -40.9305
20 37 -40.9305
21 37 -40.9305
26 37 -5.59842
27 37 -5.0194
28 37 -4.49393
29 37 -4.04881
30 37 -3.64325
31 37 -3.19777
32 37 -2.93116
33 37 -2.78058
34 37 -2.7078
35 37 -2.64753
36 37 -2.53096
37 37 -2.41191
38 37 -2.25557
39 37 -1.93915
40 37 -1.54755
41 37 -1.2454
42 37 -1.05715
43 37 -1.07893
44 37 -1.25595
45 37 -1.38883
46 37 -1.48047
47 37 -1.57027
48 37 -1.64819
49 37 -1.76791
50 37 -2.08288
51 37 -2.56071
52 37 -2.96112
53 37 -3.18578
54 37 -2.96232
59 37 4.61062
60 37 5.35866
61 37 5.96096
62 37 6.43921
63 37 6.68204
64 37 6.7848
65 37 6.9307
66 37 7.09751
67 37 7.20266
68 37 7.31496
69 37 7.5232
70 37 7.78773
71 37 8.01342
72 37 8.06547
73 37 8.05631
74 37 8.00211
75 37 7.94964
76 37 7.76893
77 37 7.3599
78 37 6.74164
79 37 6.39966
80 37 6.38147
81 37 6.37474
82 37 6.37333
83 37 6.29826
84 37 5.98392
85 37 5.42622
86 37 5.02111
87 37 4.79012
88 37 4.33112
89 37 3.67232
90 37 3.24837
91 37 2.94427
92 37 2.42609
93 37 1.65831
94 37 0.809412
95 37 -0.415211
96 37 -1.16619
97 37 -1.79212
98 37 -2.39677
99 37 -2.84169
100 37 -3.38741
101 37 -4.17361
102 37 -5.18006
104 37 -7.65144
105 37 -8.39654
106 37 -8.45258
107 37 -8.26747
108 37 -8.23736
109 37 -8.37822
110 37 -8.69119
111 37 -9.12101
114 37 -40.9305
115 37 -40.9305
116 37 -40.9305
117 37 -40.9305
118 37 -40.9305
1 38 -40.9305
2 38 -40.9305
3 38 -40.9305
4 38 -40.9305
5 38 -40.9305
6 38 -40.9305
7 38 -40.9305
8 38 -40.9305
9 38 -40.9305
10 38 -40.9305
11 38 -40.9305
12 38 -40.9305
13 38 -40.9305
14 38 -40.9305
15 38 -40.9305
16 38 -40.9305
17 38 -40.9305
18 38 -40.9305
19 38 -40.9305
20 38 -40.9305
24 38 -6.00281
25 38 -5.4244
26 38 -4.89589
27 38 -4.35093
28 38 -3.81819
29 38 -3.35631
30 38 -2.92787
31 38 -2.53384
32 38 -2.31488
33 38 -2.24142
34 38 -2.23017
35 38 -2.14495
36 38 -1.91078
37 38 -1.7116
38 38 -1.62607
39 38 -1.57424
40 38 -1.38579
41 38 -1.22572
42 38 -1.11568
43 38 -1.1323
44 38 -1.25482
45 38 -1.45072
46 38 -1.56715
47 38 -1.65955
48 38 -1.73942
49 38 -1.80996
50 38 -2.11609
51 38 -2.55891
52 38 -2.89422
53 38 -3.03044
54 38 -2.60811
59 38 4.93477
60 38 5.55798
61 38 6.13203
62 38 6.57321
63 38 6.79718
64 38 6.96921
65 38 7.13527
66 38 7.24328
67 38 7.32531
68 38 7.41137
69 38 7.54102
70 38 7.68355
71 38 7.85276
72 38 7.94408
73 38 7.91692
74 38 7.8637
75 38 7.83034
76 38 7.74387
77 38 7.41944
78 38 6.72533
79 38 6.32151
80 38 6.28298
81 38 6.2562
82 38 6.23676
83 38 6.2016
84 38 5.9164
85 38 5.36229
86 38 5.02293
87 38 4.85429
88 38 4.42587
89 38 3.85953
90 38 3.454
91 38 3.07873
92 38 2.45346
93 38 1.65227
94 38 0.855304
95 38 -0.174629
96 38 -1.0642
97 38 -1.57706
98 38 -2.2712
99 38 -2.94611
100 38 -3.53166
101 38 -4.19611
102 38 -5.36339
104 38 -7.86574
105 38 -8.96093
106 38 -9.23462
107 38 -9.08811
108 38 -9.02197
109 38 -9.15834
110 38 -9.50951
113 38 -40.9305
114 38 -40.9305
115 38 -40.9305
116 38 -40.9305
117 38 -40.9305
118 38 -40.9305
1 39 -40.9305
2 39 -40.9305
3 39 -40.9305
4 39 -40.9305
5 39 -40.9305
6 39 -40.9305
7 39 -40.9305
8 39 -40.9305
9 39 -40.9305
10 39 -40.9305
11 39 -40.9305
12 39 -40.9305
13 39 -40.9305
14 39 -40.9305
15 39 -40.9305
16 39 -40.9305
17 39 -40.9305
18 39 -40.9305
19 39 -40.9305
23 39 -5.91297
24 39 -5.30844
25 39 -4.81237
26 39 -4.30112
27 39 -3.74861
28 39 -3.20402
29 39 -2.77775
30 39 -2.40113
31 39 -2.06975
32 39 -1.86327
33 39 -1.81282
34 39 -1.81002
35 39 -1.70644
36 39 -1.4961
37 39 -1.28003
38 39 -1.18706
39 39 -1.25993
40 39 -1.3288
41 39 -1.30944
42 39 -1.25013
43 39 -1.20225
44 39 -1.21631
45 39 -1.39427
46 39 -1.63267
47 39 -1.76136
48 39 -1.83998
49 39 -1.91215
50 39 -2.12452
51 39 -2.53622
52 39 -2.82431
53 39 -2.86466
54 39 -2.13686
58 39 4.57165
59 39 5.2914
60 39 5.85932
61 39 6.35584
62 39 6.71574
63 39 6.93013
64 39 7.11221
65 39 7.19051
66 39 7.28948
67 39 7.41612
68 39 7.52031
69 39 7.57103
70 39 7.59635
71 39 7.65191
72 39 7.77949
73 39 7.75639
74 39 7.70544
75 39 7.67556
76 39 7.62434
77 39 7.35784
78 39 6.74476
79 39 6.22433
80 39 6.17273
81 39 6.13033
82 39 6.08921
83 39 6.04704
84 39 5.7828
85 39 5.23819
86 39 4.96564
87 39 4.83518
88 39 4.50157
89 39 4.03594
90 39 3.60997
91 39 3.12428
92 39 2.39642
93 39 1.65282
94 39 0.960472
95 39 0.155261
96 39 -0.944287
97 39 -1.49363
98 39 -2.08261
99 39 -2.9038
100 39 -3.7125
101 39 -4.41312
113 39 -40.9305
114 39 -40.9305
115 39 -40.9305
116 39 -40.9305
117 39 -40.9305
118 39 -40.9305
1 40 -40.9305
2 40 -40.9305
3 40 -40.9305
4 40 -40.9305
5 40 -40.9305
6 40 -40.9305
7 40 -40.9305
8 40 -40.9305
9 40 -40.9305
10 40 -40.9305
11 40 -40.9305
12 40 -40.9305
13 40 -40.9305
14 40 -40.9305
15 40 -40.9305
16 40 -40.9305
17 40 -40.9305
18 40 -40.9305
22 40 -6.0474
23 40 -5.28922
24 40 -4.76334
25 40 -4.26147
26 40 -3.76323
27 40 -3.22509
28 40 -2.74151
29 40 -2.37943
30 40 -2.05074
31 40 -1.71669
32 40 -1.51453
33 40 -1.4324
34 40 -1.45869
35 40 -1.39733
36 40 -1.20952
37 40 -0.980237
38 40 -0.839999
39 40 -0.957674
40 40 -1.23091
41 40 -1.39638
42 40 -1.36627
43 40 -1.2536
44 40 -1.25054
45 40 -1.32599
46 40 -1.5985
47 40 -1.83098
48 40 -1.947
49 40 -2.04889
50 40 -2.21234
51 40 -2.51061
52 40 -2.79507
53 40 -2.68806
58 40 5.04866
59 40 5.68899
60 40 6.20108
61 40 6.62628
62 40 6.92568
63 40 7.08955
64 40 7.14033
65 40 7.13668
66 40 7.25585
67 40 7.4697
68 40 7.59936
69 40 7.58731
70 40 7.52807
71 40 7.47375
72 40 7.56633
73 40 7.57651
74 40 7.52608
75 40 7.49376
76 40 7.42357
77 40 7.19948
78 40 6.73103
79 40 6.16879
80 40 6.05329
81 40 6.00319
82 40 5.94384
83 40 5.88066
84 40 5.6395
85 40 5.1277
86 40 4.8444
87 40 4.75691
88 40 4.48996
89 40 4.0891
90 40 3.63862
91 40 3.07941
92 40 2.31059
93 40 1.61893
94 40 0.985763
95 40 0.322203
96 40 -0.815391
97 40 -1.47452
98 40 -2.08438
99 40 -2.82802
100 40 -3.82304
101 40 -4.64611
112 40 -40.9305
113 40 -40.9305
114 40 -40.9305
115 40 -40.9305
116 40 -40.9305
117 40 -40.9305
118 40 -40.9305
1 41 -40.9305
2 41 -40.9305
3 41 -40.9305
4 41 -40.9305
5 41 -40.9305
6 41 -40.9305
7 41 -40.9305
8 41 -40.9305
9 41 -40.9305
10 41 -40.9305
11 41 -40.9305
12 41 -40.9305
13 41 -40.9305
14 41 -40.9305
15 41 -40.9305
16 41 -40.9305
17 41 -40.9305
22 41 -5.42484
23 41 -4.75884
24 41 -4.22541
25 41 -3.71925
26 41 -3.2191
27 41 -2.75097
28 41 -2.3427
29 41 -2.07142
30 41 -1.77802
31 41 -1.4458
32 41 -1.21471
33 41 -1.07195
34 41 -1.08464
35 41 -1.10985
36 41 -0.983632
37 41 -0.731512
38 41 -0.628676
39 41 -0.759254
40 41 -1.12095
41 41 -1.47909
42 41 -1.47441
43 41 -1.33821
44 41 -1.33189
45 41 -1.38953
46 41 -1.53144
47 41 -1.78896
48 41 -1.98459
49 41 -2.16513
50 41 -2.33382
51 41 -2.56753
52 41 -2.76517
53 41 -2.45263
58 41 5.4638
59 41 6.05077
60 41 6.51394
61 41 6.89698
62 41 7.20371
63 41 7.22749
64 41 7.14934
65 41 7.07646
66 41 7.22188
67 41 7.46117
68 41 7.5454
69 41 7.50765
70 41 7.44401
71 41 7.37739
72 41 7.35907
73 41 7.37291
74 41 7.32863
75 41 7.27115
76 41 7.18459
77 41 7.01275
78 41 6.70266
79 41 6.21324
80 41 5.94877
81 41 5.88134
82 41 5.79019
83 41 5.68266
84 41 5.44853
85 41 4.99115
86 41 4.69226
87 41 4.58754
88 41 4.37003
89 41 4.0052
90 41 3.55764
91 41 2.98199
92 41 2.22484
93 41 1.573
94 41 0.969768
95 41 0.359767
96 41 -0.752464
97 41 -1.5193
98 41 -2.18872
99 41 -2.88575
100 41 -3.82839
101 41 -4.90118
110 41 -40.9305
111 41 -40.9305
112 41 -40.9305
113 41 -40.9305
114 41 -40.9305
115 41 -40.9305
116 41 -40.9305
117 41 -40.9305
118 41 -40.9305
1 42 -40.9305
2 42 -40.9305
3 42 -40.9305
4 42 -40.9305
5 42 -40.9305
6 42 -40.9305
7 42 -40.9305
8 42 -40.9305
9 42 -40.9305
10 42 -40.9305
11 42 -40.9305
12 42 -40.9305
13 42 -40.9305
14 42 -40.9305
15 42 -40.9305
16 42 -40.9305
21 42 -5.7126
22 42 -4.89135
23 42 -4.26682
24 42 -3.67794
25 42 -3.15802
26 42 -2.66426
27 42 -2.23504
28 42 -1.9536
29 42 -1.81392
30 42 -1.55758
31 42 -1.24577
32 42 -0.964293
33 42 -0.747525
34 42 -0.698831
35 42 -0.819059
36 42 -0.804635
37 42 -0.649867
38 42 -0.62467
39 42 -0.677592
40 42 -1.01528
41 42 -1.47146
42 42 -1.63483
43 42 -1.50477
44 42 -1.43926
45 42 -1.46717
46 42 -1.52167
47 42 -1.65398
48 42 -1.84402
49 42 -2.14743
50 42 -2.44427
51 42 -2.64662
52 42 -2.73995
53 42 -2.13714
57 42 4.94964
58 42 5.72929
59 42 6.26746
60 42 6.7274
61 42 7.13873
62 42 7.39099
63 42 7.33648
64 42 7.13257
65 42 7.03345
66 42 7.21741
67 42 7.40904
68 42 7.42759
69 42 7.38229
70 42 7.34949
71 42 7.23914
72 42 7.19796
73 42 7.18142
74 42 7.1444
75 42 7.08929
76 42 7.01078
77 42 6.90213
78 42 6.71167
79 42 6.33428
80 42 6.00941
81 42 5.7986
82 42 5.65651
83 42 5.49959
84 42 5.26155
85 42 4.85158
86 42 4.5065
87 42 4.342
88 42 4.10098
89 42 3.75417
90 42 3.35257
91 42 2.79934
92 42 2.08613
93 42 1.46962
94 42 0.925365
95 42 0.295573
96 42 -0.786841
97 42 -1.62889
98 42 -2.32753
99 42 -3.01442
100 42 -3.87487
107 42 -40.9305
108 42 -40.9305
109 42 -40.9305
110 42 -40.9305
111 42 -40.9305
112 42 -40.9305
113 42 -40.9305
114 42 -40.9305
115 42 -40.9305
116 42 -40.9305
117 42 -40.9305
118 42 -40.9305
1 43 -40.9305
2 43 -40.9305
3 43 -40.9305
4 43 -40.9305
5 43 -40.9305
6 43 -40.9305
7 43 -40.9305
8 43 -40.9305
9 43 -40.9305
10 43 -40.9305
11 43 -40.9305
12 43 -40.9305
13 43 -40.9305
14 43 -40.9305
15 43 -40.9305
16 43 -40.9305
20 43 -6.1027
21 43 -5.19631
22 43 -4.44413
23 43 -3.79992
24 43 -3.20747
25 43 -2.66864
26 43 -2.16075
27 43 -1.7521
28 43 -1.57687
29 43 -1.54623
30 43 -1.3776
31 43 -1.13497
32 43 -0.809992
33 43 -0.506762
34 43 -0.382154
35 43 -0.541995
36 43 -0.71896
37 43 -0.674863
38 43 -0.67427
39 43 -0.695255
40 43 -0.947035
41 43 -1.44019
42 43 -1.68731
43 43 -1.66463
44 43 -1.59631
45 43 -1.54568
46 43 -1.47769
47 43 -1.45686
48 43 -1.64213
49 43 -2.03144
50 43 -2.4706
51 43 -2.68672
52 43 -2.68889
53 43 -1.83083
57 43 5.15614
58 43 5.85791
59 43 6.37039
60 43 6.83898
61 43 7.22424
62 43 7.35781
63 43 7.28398
64 43 7.08974
65 43 6.98327
66 43 7.16551
67 43 7.26529
68 43 7.26821
69 43 7.24445
70 43 7.22894
71 43 7.05921
72 43 7.02321
73 43 7.01042
74 43 6.97825
75 43 6.93085
76 43 6.86938
77 43 6.79658
78 43 6.70891
79 43 6.46166
80 43 6.21737
81 43 5.96294
82 43 5.70805
83 43 5.44022
84 43 5.14871
85 43 4.71332
86 43 4.28571
87 43 4.02793
88 43 3.75052
89 43 3.40313
90 43 3.03377
91 43 2.51925
92 43 1.88912
93 43 1.35399
94 43 0.844767
95 43 0.146876
96 43 -0.89572
97 43 -1.82264
98 43 -2.53897
99 43 -3.1958
100 43 -3.99791
106 43 -40.9305
107 43 -40.9305
108 43 -40.9305
109 43 -40.9305
110 43 -40.9305
111 43 -40.9305
112 43 -40.9305
113 43 -40.9305
114 43 -40.9305
115 43 -40.9305
116 43 -40.9305
117 43 -40.9305
118 43 -40.9305
1 44 -40.9305
2 44 -40.9305
3 44 -40.9305
4 44 -40.9305
5 44 -40.9305
6 44 -40.9305
7 44 -40.9305
8 44 -40.9305
9 44 -40.9305
10 44 -40.9305
11 44 -40.9305
12 44 -40.9305
13 44 -40.9305
14 44 -40.9305
15 44 -40.9305
19 44 -6.47607
20 44 -5.57347
21 44 -4.72619
22 44 -4.03917
23 44 -3.40383
24 44 -2.80354
25 44 -2.23126
26 44 -1.72434
27 44 -1.34952
28 44 -1.26401
29 44 -1.29677
30 44 -1.24452
31 44 -1.09048
32 44 -0.746157
33 44 -0.365551
34 44 -0.226691
35 44 -0.341437
36 44 -0.596305
37 44 -0.671425
38 44 -0.650962
39 44 -0.650849
40 44 -0.837277
41 44 -1.26974
42 44 -1.70657
43 44 -1.73877
44 44 -1.7509
45 44 -1.56865
46 44 -1.33442
47 44 -1.28598
48 44 -1.47533
49 44 -1.91196
50 44 -2.42627
51 44 -2.6831
52 44 -2.61092
57 44 5.21991
58 44 5.89737
59 44 6.39162
60 44 6.851
61 44 7.19261
62 44 7.23719
63 44 7.17176
64 44 6.98968
65 44 6.96421
66 44 7.06866
67 44 7.1068
68 44 7.10736
69 44 7.09836
70 44 7.08424
71 44 6.86812
72 44 6.86337
73 44 6.85878
74 44 6.82735
75 44 6.78647
76 44 6.73931
77 44 6.69132
78 44 6.65602
79 44 6.54704
80 44 6.36933
81 44 6.11559
82 44 5.80571
83 44 5.49737
84 44 5.13289
85 44 4.64226
86 44 4.0834
87 44 3.68278
88 44 3.37127
89 44 3.03055
90 44 2.65477
91 44 2.17368
92 44 1.68036
93 44 1.21869
94 44 0.661505
95 44 -0.110265
96 44 -1.04535
97 44 -2.04491
98 44 -2.79271
99 44 -3.40848
100 44 -4.17981
106 44 -40.9305
107 44 -40.9305
108 44 -40.9305
109 44 -40.9305
110 44 -40.9305
111 44 -40.9305
112 44 -40.9305
113 44 -40.9305
114 44 -40.9305
115 44 -40.9305
116 44 -40.9305
117 44 -40.9305
118 44 -40.9305
1 45 -40.9305
2 45 -40.9305
3 45 -40.9305
4 45 -40.9305
5 45 -40.9305
6 45 -40.9305
7 45 -40.9305
8 45 -40.9305
9 45 -40.9305
10 45 -40.9305
11 45 -40.9305
12 45 -40.9305
13 45 -40.9305
14 45 -40.9305
15 45 -40.9305
19 45 -5.9578
20 45 -5.1584
21 45 -4.3678
22 45 -3.6942
23 45 -3.05794
24 45 -2.4184
25 45 -1.83989
26 45 -1.35754
27 45 -1.09318
28 45 -1.05301
29 45 -1.13391
30 45 -1.16135
31 45 -1.04189
32 45 -0.733524
33 45 -0.337887
34 45 -0.212325
35 45 -0.25126
36 45 -0.415103
37 45 -0.491741
38 45 -0.494815
39 45 -0.525352
40 45 -0.680005
41 45 -1.0767
42 45 -1.55404
43 45 -1.77767
44 45 -1.79054
45 45 -1.48899
46 45 -1.23926
47 45 -1.24081
48 45 -1.39558
49 45 -1.85734
50 45 -2.41933
51 45 -2.68455
52 45 -2.50872
57 45 5.13379
58 45 5.83843
59 45 6.32778
60 45 6.76525
61 45 7.10465
62 45 7.12181
63 45 7.05565
64 45 6.90233
65 45 6.89445
66 45 6.94513
67 45 6.95773
68 45 6.95609
69 45 6.94526
70 45 6.93346
71 45 6.73283
72 45 6.72349
73 45 6.71127
74 45 6.6859
75 45 6.64835
76 45 6.61008
77 45 6.57338
78 45 6.53448
79 45 6.48859
80 45 6.39892
81 45 6.19063
82 45 5.88292
83 45 5.56278
84 45 5.14267
85 45 4.61924
86 45 3.97173
87 45 3.39613
88 45 3.01674
89 45 2.64399
90 45 2.24227
91 45 1.80723
92 45 1.41819
93 45 0.98976
94 45 0.390381
95 45 -0.37978
96 45 -1.18729
97 45 -2.24694
98 45 -3.05677
99 45 -3.58387
100 45 -4.31306
106 45 -40.9305
107 45 -40.9305
108 45 -40.9305
109 45 -40.9305
110 45 -40.9305
111 45 -40.9305
112 45 -40.9305
113 45 -40.9305
114 45 -40.9305
115 45 -40.9305
116 45 -40.9305
117 45 -40.9305
118 45 -40.9305
1 46 -40.9305
2 46 -40.9305
3 46 -40.9305
4 46 -40.9305
5 46 -40.9305
6 46 -40.9305
7 46 -40.9305
8 46 -40.9305
9 46 -40.9305
10 46 -40.9305
11 46 -40.9305
12 46 -40.9305
13 46 -40.9305
14 46 -40.9305
18 46 -6.37869
19 46 -5.52968
20 46 -4.77032
21 46 -4.04084
22 46 -3.37384
23 46 -2.7376
24 46 -2.06934
25 46 -1.52061
26 46 -1.09992
27 46 -0.936872
28 46 -0.900238
29 46 -0.948346
30 46 -1.0291
31 46 -0.935378
32 46 -0.691113
33 46 -0.35182
34 46 -0.221589
35 46 -0.225138
36 46 -0.253448
37 46 -0.257565
38 46 -0.268747
39 46 -0.348944
40 46 -0.529486
41 46 -0.914979
42 46 -1.39468
43 46 -1.7707
44 46 -1.82701
45 46 -1.53218
46 46 -1.28215
47 46 -1.29321
48 46 -1.40251
49 46 -1.85764
50 46 -2.37574
51 46 -2.58855
52 46 -2.3328
53 46 -1.25372
57 46 4.94114
58 46 5.68884
59 46 6.18183
60 46 6.57658
61 46 6.92662
62 46 6.98497
63 46 6.91063
64 46 6.81287
65 46 6.80731
66 46 6.82233
67 46 6.82289
68 46 6.814
69 46 6.79426
70 46 6.76179
71 46 6.63744
72 46 6.5963
73 46 6.57691
74 46 6.54748
75 46 6.51095
76 46 6.4793
77 46 6.45762
78 46 6.41993
79 46 6.38434
80 46 6.32001
81 46 6.15092
82 46 5.86872
83 46 5.55455
84 46 5.12147
85 46 4.60182
86 46 3.95269
87 46 3.24163
88 46 2.70577
89 46 2.26321
90 46 1.83054
91 46 1.40388
92 46 1.0901
93 46 0.698501
94 46 0.0969495
95 46 -0.59595
96 46 -1.27479
97 46 -2.40675
98 46 -3.26335
99 46 -3.70454
100 46 -4.38321
101 46 -5.50538
105 46 -40.9305
106 46 -40.9305
107 46 -40.9305
108 46 -40.9305
109 46 -40.9305
110 46 -40.9305
111 46 -40.9305
112 46 -40.9305
113 46 -40.9305
114 46 -40.9305
115 46 -40.9305
116 46 -40.9305
117 46 -40.9305
118 46 -40.9305
1 47 -40.9305
2 47 -40.9305
3 47 -40.9305
4 47 -40.9305
5 47 -40.9305
6 47 -40.9305
7 47 -40.9305
8 47 -40.9305
9 47 -40.9305
10 47 -40.9305
11 47 -40.9305
12 47 -40.9305
13 47 -40.9305
14 47 -40.9305
18 47 -5.95202
19 47 -5.12952
20 47 -4.40774
21 47 -3.7252
22 47 -3.08938
23 47 -2.46744
24 47 -1.81412
25 47 -1.29663
26 47 -0.927771
27 47 -0.802661
28 47 -0.732602
29 47 -0.707009
30 47 -0.783894
31 47 -0.783262
32 47 -0.641055
33 47 -0.408451
34 47 -0.262329
35 47 -0.238491
36 47 -0.212153
37 47 -0.185534
38 47 -0.181215
39 47 -0.244937
40 47 -0.472643
41 47 -0.856971
42 47 -1.33605
43 47 -1.77025
44 47 -1.88979
45 47 -1.62643
46 47 -1.35653
47 47 -1.35804
48 47 -1.4975
49 47 -1.88185
50 47 -2.24678
51 47 -2.36237
52 47 -2.02382
53 47 -1.20534
57 47 4.66325
58 47 5.42952
59 47 5.95545
60 47 6.34813
61 47 6.65482
62 47 6.80868
63 47 6.77307
64 47 6.73247
65 47 6.71316
66 47 6.70482
67 47 6.68395
68 47 6.68277
69 47 6.656
70 47 6.60854
71 47 6.53141
72 47 6.48845
73 47 6.44714
74 47 6.40702
75 47 6.36869
76 47 6.33853
77 47 6.32572
78 47 6.30329
79 47 6.26447
80 47 6.16841
81 47 5.97059
82 47 5.71825
83 47 5.41976
84 47 5.00168
85 47 4.49505
86 47 3.93182
87 47 3.18779
88 47 2.52376
89 47 1.95696
90 47 1.40312
91 47 1.00001
92 47 0.73405
93 47 0.415013
94 47 -0.107499
95 47 -0.669577
96 47 -1.36595
97 47 -2.57511
98 47 -3.38503
99 47 -3.73622
100 47 -4.32678
101 47 -5.51123
105 47 -40.9305
106 47 -40.9305
107 47 -40.9305
108 47 -40.9305
109 47 -40.9305
110 47 -40.9305
111 47 -40.9305
112 47 -40.9305
113 47 -40.9305
114 47 -40.9305
115 47 -40.9305
116 47 -40.9305
117 47 -40.9305
118 47 -40.9305
1 48 -40.9305
2 48 -40.9305
3 48 -40.9305
4 48 -40.9305
5 48 -40.9305
6 48 -40.9305
7 48 -40.9305
8 48 -40.9305
9 48 -40.9305
10 48 -40.9305
11 48 -40.9305
12 48 -40.9305
13 48 -40.9305
14 48 -40.9305
18 48 -5.60134
19 48 -4.77337
20 48 -4.08625
21 48 -3.43143
22 48 -2.83705
23 48 -2.29489
24 48 -1.63523
25 48 -1.14596
26 48 -0.808804
27 48 -0.654341
28 48 -0.531768
29 48 -0.489028
30 48 -0.572359
31 48 -0.686411
32 48 -0.636561
33 48 -0.454163
34 48 -0.310123
35 48 -0.286227
36 48 -0.277705
37 48 -0.261196
38 48 -0.238063
39 48 -0.259159
40 48 -0.503692
41 48 -0.92001
42 48 -1.39462
43 48 -1.85979
44 48 -1.96354
45 48 -1.74187
46 48 -1.42912
47 48 -1.47159
48 48 -1.65837
49 48 -1.87407
50 48 -2.02025
51 48 -1.94383
52 48 -1.67597
53 48 -1.16815
57 48 4.27701
58 48 5.04303
59 48 5.60768
60 48 6.02262
61 48 6.34037
62 48 6.58569
63 48 6.64183
64 48 6.63077
65 48 6.60805
66 48 6.58376
67 48 6.51699
68 48 6.55506
69 48 6.53844
70 48 6.48609
71 48 6.42489
72 48 6.36978
73 48 6.31619
74 48 6.26477
75 48 6.21824
76 48 6.18042
77 48 6.14646
78 48 6.12645
79 48 6.04836
80 48 5.89759
81 48 5.68676
82 48 5.43418
83 48 5.14249
84 48 4.76711
85 48 4.32835
86 48 3.85195
87 48 3.13963
88 48 2.35444
89 48 1.69513
90 48 0.979053
91 48 0.573839
92 48 0.40653
93 48 0.226329
94 48 -0.233393
95 48 -0.773552
96 48 -1.53846
97 48 -2.76379
98 48 -3.45768
99 48 -3.76474
100 48 -4.29043
105 48 -40.9305
106 48 -40.9305
107 48 -40.9305
108 48 -40.9305
109 48 -40.9305
110 48 -40.9305
111 48 -40.9305
112 48 -40.9305
113 48 -40.9305
114 48 -40.9305
115 48 -40.9305
116 48 -40.9305
117 48 -40.9305
118 48 -40.9305
1 49 -40.9305
2 49 -40.9305
3 49 -40.9305
4 49 -40.9305
5 49 -40.9305
6 49 -40.9305
7 49 -40.9305
8 49 -40.9305
9 49 -40.9305
10 49 -40.9305
11 49 -40.9305
12 49 -40.9305
13 49 -40.9305
18 49 -5.33941
19 49 -4.50468
20 49 -3.8186
21 49 -3.16201
22 49 -2.64483
23 49 -2.21995
24 49 -1.57452
25 49 -1.06356
26 49 -0.751436
27 49 -0.542986
28 49 -0.425482
29 49 -0.396277
30 49 -0.442305
31 49 -0.601491
32 49 -0.583491
33 49 -0.42127
34 49 -0.376269
35 49 -0.356572
36 49 -0.351245
37 49 -0.34348
38 49 -0.345533
39 49 -0.385878
40 49 -0.6572
41 49 -1.09915
42 49 -1.58068
43 49 -1.97067
44 49 -1.99315
45 49 -1.83419
46 49 -1.5101
47 49 -1.57421
48 49 -1.70755
49 49 -1.75191
50 49 -1.63399
51 49 -1.49386
52 49 -1.44495
53 49 -1.1856
54 49 -0.152867
57 49 3.8338
58 49 4.59606
59 49 5.2044
60 49 5.65338
61 49 6.02311
62 49 6.30686
63 49 6.48822
64 49 6.52717
65 49 6.5045
66 49 6.45947
67 49 6.36423
68 49 6.42719
69 49 6.42846
70 49 6.3725
71 49 6.3123
72 49 6.24959
73 49 6.18309
74 49 6.11761
75 49 6.05911
76 49 6.00631
77 49 5.94989
78 49 5.86987
79 49 5.72979
80 49 5.55604
81 49 5.33483
82 49 5.06621
83 49 4.78069
84 49 4.44499
85 49 4.08623
86 49 3.66176
87 49 2.98733
88 49 2.20974
89 49 1.48601
90 49 0.570471
91 49 0.20934
92 49 0.13983
93 49 0.0665035
94 49 -0.372434
95 49 -0.963345
96 49 -1.80593
97 49 -2.91273
98 49 -3.52803
99 49 -3.80753
100 49 -4.36403
105 49 -40.9305
106 49 -40.9305
107 49 -40.9305
108 49 -40.9305
109 49 -40.9305
110 49 -40.9305
111 49 -40.9305
112 49 -40.9305
113 49 -40.9305
114 49 -40.9305
115 49 -40.9305
116 49 -40.9305
117 49 -40.9305
118 49 -40.9305
1 50 -40.9305
2 50 -40.9305
3 50 -40.9305
4 50 -40.9305
5 50 -40.9305
6 50 -40.9305
7 50 -40.9305
8 50 -40.9305
9 50 -40.9305
10 50 -40.9305
11 50 -40.9305
12 50 -40.9305
13 50 -40.9305
18 50 -5.1938
19 50 -4.32739
20 50 -3.60776
21 50 -2.9468
22 50 -2.50878
23 50 -2.22408
24 50 -1.64128
25 50 -1.09129
26 50 -0.75608
27 50 -0.49829
28 50 -0.408586
29 50 -0.393579
30 50 -0.398621
31 50 -0.466808
32 50 -0.434285
33 50 -0.367133
34 50 -0.404203
35 50 -0.440705
36 50 -0.459367
37 50 -0.49277
38 50 -0.515802
39 50 -0.608194
40 50 -0.928413
41 50 -1.35646
42 50 -1.75204
43 50 -1.94677
44 50 -1.97936
45 50 -1.91319
46 50 -1.56593
47 50 -1.57749
48 50 -1.59639
49 50 -1.4948
50 50 -1.29217
51 50 -1.29475
52 50 -1.35253
53 50 -1.26919
54 50 -0.51215
58 50 4.12476
59 50 4.74709
60 50 5.24663
61 50 5.6574
62 50 5.99451
63 50 6.23571
64 50 6.36871
65 50 6.39486
66 50 6.34626
67 50 6.2809
68 50 6.28549
69 50 6.30938
70 50 6.26316
71 50 6.20221
72 50 6.13318
73 50 6.04896
74 50 5.96347
75 50 5.89426
76 50 5.82486
77 50 5.7359
78 50 5.58608
79 50 5.42089
80 50 5.2215
81 50 4.97591
82 50 4.66604
83 50 4.35195
84 50 4.04574
85 50 3.74506
86 50 3.3574
87 50 2.70692
88 50 2.04544
89 50 1.26841
90 50 0.158063
91 50 -0.0693279
92 50 -0.0836831
93 50 -0.128259
94 50 -0.537689
95 50 -1.13973
96 50 -2.03553
97 50 -2.98741
98 50 -3.56162
99 50 -3.92975
100 50 -4.57171
105 50 -40.9305
106 50 -40.9305
107 50 -40.9305
108 50 -40.9305
109 50 -40.9305
110 50 -40.9305
111 50 -40.9305
112 50 -40.9305
113 50 -40.9305
114 50 -40.9305
115 50 -40.9305
116 50 -40.9305
117 50 -40.9305
118 50 -40.9305
1 51 -40.9305
2 51 -40.9305
3 51 -40.9305
4 51 -40.9305
5 51 -40.9305
6 51 -40.9305
7 51 -40.9305
8 51 -40.9305
9 51 -40.9305
10 51 -40.9305
11 51 -40.9305
12 51 -40.9305
13 51 -40.9305
18 51 -5.15474
19 51 -4.22168
20 51 -3.48353
21 51 -2.77744
22 51 -2.40908
23 51 -2.19956
24 51 -1.7539
25 51 -1.21831
26 51 -0.853463
27 51 -0.520038
28 51 -0.383308
29 51 -0.37083
30 51 -0.359851
31 51 -0.371039
32 51 -0.3626
33 51 -0.364657
34 51 -0.440596
35 51 -0.570619
36 51 -0.670412
37 51 -0.696244
38 51 -0.732649
39 51 -0.8544
40 51 -1.16854
41 51 -1.5187
42 51 -1.77969
43 51 -1.91279
44 51 -1.97024
45 51 -1.95427
46 51 -1.6254
47 51 -1.50324
48 51 -1.40447
49 51 -1.21393
50 51 -1.15304
51 51 -1.2315
52 51 -1.28504
53 51 -1.2931
54 51 -0.894553
55 51 0.268524
58 51 3.57406
59 51 4.22521
60 51 4.77634
61 51 5.19259
62 51 5.59547
63 51 5.90346
64 51 6.06752
65 51 6.17928
66 51 6.20175
67 51 6.1569
68 51 6.15193
69 51 6.16258
70 51 6.1364
71 51 6.06807
72 51 5.98759
73 51 5.89184
74 51 5.79303
75 51 5.7175
76 51 5.62764
77 51 5.4967
78 51 5.32626
79 51 5.16508
80 51 4.92489
81 51 4.57169
82 51 4.17725
83 51 3.85902
84 51 3.59293
85 51 3.34655
86 51 2.95101
87 51 2.36706
88 51 1.77061
89 51 0.906015
90 51 -0.175179
91 51 -0.269616
92 51 -0.253904
93 51 -0.305262
94 51 -0.729362
95 51 -1.34841
96 51 -2.20256
97 51 -3.06442
98 51 -3.65959
99 51 -4.17638
100 51 -4.89757
105 51 -40.9305
106 51 -40.9305
107 51 -40.9305
108 51 -40.9305
109 51 -40.9305
110 51 -40.9305
111 51 -40.9305
112 51 -40.9305
113 51 -40.9305
114 51 -40.9305
115 51 -40.9305
116 51 -40.9305
117 51 -40.9305
118 51 -40.9305
1 52 -40.9305
2 52 -40.9305
3 52 -40.9305
4 52 -40.9305
5 52 -40.9305
6 52 -40.9305
7 52 -40.9305
8 52 -40.9305
9 52 -40.9305
10 52 -40.9305
11 52 -40.9305
12 52 -40.9305
17 52 -6.2725
18 52 -5.14871
19 52 -4.14909
20 52 -3.36905
21 52 -2.66683
22 52 -2.2923
23 52 -2.11335
24 52 -1.88499
25 52 -1.41692
26 52 -1.00244
27 52 -0.637896
28 52 -0.377905
29 52 -0.346581
30 52 -0.340973
31 52 -0.348444
32 52 -0.356406
33 52 -0.365203
34 52 -0.509403
35 52 -0.745174
36 52 -0.800287
37 52 -0.807725
38 52 -0.826016
39 52 -0.971113
40 52 -1.25608
41 52 -1.54712
42 52 -1.7668
43 52 -1.91739
44 52 -2.00557
45 52 -1.98256
46 52 -1.66548
47 52 -1.40852
48 52 -1.23377
49 52 -1.10295
50 52 -1.14766
51 52 -1.19403
52 52 -1.24472
53 52 -1.23332
54 52 -0.968114
55 52 -0.360753
59 52 3.61657
60 52 4.21305
61 52 4.67429
62 52 5.07434
63 52 5.44804
64 52 5.63713
65 52 5.71491
66 52 5.85826
67 52 5.90154
68 52 5.84611
69 52 5.80796
70 52 5.79874
71 52 5.79846
72 52 5.72726
73 52 5.64554
74 52 5.5647
75 52 5.49556
76 52 5.38845
77 52 5.26881
78 52 5.10894
79 52 4.89698
80 52 4.56397
81 52 4.10296
82 52 3.66171
83 52 3.34475
84 52 3.11494
85 52 2.86195
86 52 2.46018
87 52 1.96549
88 52 1.38044
89 52 0.375612
90 52 -0.383231
91 52 -0.398516
92 52 -0.407777
93 52 -0.48601
94 52 -0.950606
95 52 -1.56883
96 52 -2.36641
97 52 -3.18315
98 52 -3.8471
99 52 -4.49129
100 52 -5.28369
105 52 -40.9305
106 52 -40.9305
107 52 -40.9305
108 52 -40.9305
109 52 -40.9305
110 52 -40.9305
111 52 -40.9305
112 52 -40.9305
113 52 -40.9305
114 52 -40.9305
115 52 -40.9305
116 52 -40.9305
117 52 -40.9305
118 52 -40.9305
1 53 -40.9305
2 53 -40.9305
3 53 -40.9305
4 53 -40.9305
5 53 -40.9305
6 53 -40.9305
7 53 -40.9305
8 53 -40.9305
9 53 -40.9305
10 53 -40.9305
11 53 -40.9305
12 53 -40.9305
17 53 -6.21183
18 53 -5.17974
19 53 -4.119
20 53 -3.29805
21 53 -2.59655
22 53 -2.16895
23 53 -1.99232
24 53 -1.89497
25 53 -1.64602
26 53 -1.21771
27 53 -0.810831
28 53 -0.445041
29 53 -0.324773
30 53 -0.309016
31 53 -0.325359
32 53 -0.361493
33 53 -0.444609
34 53 -0.710664
35 53 -0.933039
36 53 -0.92255
37 53 -0.843208
38 53 -0.739575
39 53 -0.945516
40 53 -1.31239
41 53 -1.54626
42 53 -1.78693
43 53 -1.97912
44 53 -2.05731
45 53 -2.05564
46 53 -1.74197
47 53 -1.40497
48 53 -1.19558
49 53 -1.13641
50 53 -1.14064
51 53 -1.15224
52 53 -1.15642
53 53 -1.03493
54 53 -0.843535
55 53 -0.759959
56 53 -0.343258
60 53 3.48927
61 53 4.02804
62 53 4.43491
63 53 4.84
64 53 5.06904
65 53 5.09561
66 53 5.20077
67 53 5.38563
68 53 5.38932
69 53 5.35236
70 53 5.35689
71 53 5.37886
72 53 5.33287
73 53 5.26585
74 53 5.17623
75 53 5.1188
76 53 5.04006
77 53 4.93302
78 53 4.75885
79 53 4.48822
80 53 4.07111
81 53 3.60419
82 53 3.17297
83 53 2.82361
84 53 2.54812
85 53 2.26198
86 53 1.8841
87 53 1.44394
88 53 0.858107
89 53 -0.0435327
90 53 -0.517512
91 53 -0.53344
92 53 -0.540707
93 53 -0.693264
94 53 -1.1864
95 53 -1.80735
96 53 -2.60025
97 53 -3.41251
98 53 -4.13491
99 53 -4.86869
100 53 -5.70374
104 53 -40.9305
105 53 -40.9305
106 53 -40.9305
107 53 -40.9305
108 53 -40.9305
109 53 -40.9305
110 53 -40.9305
111 53 -40.9305
112 53 -40.9305
113 53 -40.9305
114 53 -40.9305
115 53 -40.9305
116 53 -40.9305
117 53 -40.9305
118 53 -40.9305
1 54 -40.9305
2 54 -40.9305
3 54 -40.9305
4 54 -40.9305
5 54 -40.9305
6 54 -40.9305
7 54 -40.9305
8 54 -40.9305
9 54 -40.9305
10 54 -40.9305
11 54 -40.9305
12 54 -40.9305
16 54 -7.09381
17 54 -6.09227
18 54 -5.2245
19 54 -4.14653
20 54 -3.31311
21 54 -2.58231
22 54 -2.10174
23 54 -1.86233
24 54 -1.81479
25 54 -1.76303
26 54 -1.44016
27 54 -1.04448
28 54 -0.695703
29 54 -0.52887
30 54 -0.50866
31 54 -0.515917
32 54 -0.580142
33 54 -0.717205
34 54 -0.975716
35 54 -1.05623
36 54 -1.01126
37 54 -0.810399
38 54 -0.756105
39 54 -0.877391
40 54 -1.31662
41 54 -1.6271
42 54 -1.83643
43 54 -2.03508
44 54 -2.12482
45 54 -2.15454
46 54 -1.88806
47 54 -1.53445
48 54 -1.28134
49 54 -1.14387
50 54 -1.12622
51 54 -1.10617
52 54 -1.0292
53 54 -0.867552
54 54 -0.830663
55 54 -1.03497
56 54 -1.05693
57 54 -0.439828
62 54 3.66307
63 54 4.052
64 54 4.33005
65 54 4.36752
66 54 4.40612
67 54 4.67428
68 54 4.81931
69 54 4.78453
70 54 4.77804
71 54 4.80644
72 54 4.77135
73 54 4.69867
74 54 4.6451
75 54 4.62049
76 54 4.56869
77 54 4.45253
78 54 4.23429
79 54 3.92883
80 54 3.5089
81 54 3.08106
82 54 2.6281
83 54 2.2105
84 54 1.88433
85 54 1.59268
86 54 1.28408
87 54 0.867248
88 54 0.280854
89 54 -0.29458
90 54 -0.611408
91 54 -0.628866
92 54 -0.668076
93 54 -0.928144
94 54 -1.44898
95 54 -2.13034
96 54 -2.98412
97 54 -3.72005
98 54 -4.45675
99 54 -5.24024
100 54 -6.15735
104 54 -40.9305
105 54 -40.9305
106 54 -40.9305
107 54 -40.9305
108 54 -40.9305
109 54 -40.9305
110 54 -40.9305
111 54 -40.9305
112 54 -40.9305
113 54 -40.9305
114 54 -40.9305
115 54 -40.9305
116 54 -40.9305
117 54 -40.9305
118 54 -40.9305
1 55 -40.9305
2 55 -40.9305
3 55 -40.9305
4 55 -40.9305
5 55 -40.9305
6 55 -40.9305
7 55 -40.9305
8 55 -40.9305
9 55 -40.9305
10 55 -40.9305
11 55 -40.9305
12 55 -40.9305
16 55 -7.01681
17 55 -6.00251
18 55 -5.20978
19 55 -4.23766
20 55 -3.36679
21 55 -2.64792
22 55 -2.11129
23 55 -1.78708
24 55 -1.73885
25 55 -1.70563
26 55 -1.62243
27 55 -1.31139
28 55 -1.01158
29 55 -0.841789
30 55 -0.8112
31 55 -0.843839
32 55 -0.940795
33 55 -1.03834
34 55 -1.114
35 55 -1.10944
36 55 -1.07989
37 55 -0.858986
38 55 -0.818722
39 55 -0.964262
40 55 -1.43286
41 55 -1.77913
42 55 -1.91843
43 55 -2.06328
44 55 -2.18174
45 55 -2.22588
46 55 -2.05811
47 55 -1.75461
48 55 -1.49431
49 55 -1.29205
50 55 -1.12647
51 55 -1.07451
52 55 -0.995428
53 55 -0.905366
54 55 -1.00114
55 55 -1.3385
56 55 -1.21812
57 55 -0.71026
58 55 -0.199826
59 55 0.299302
64 55 3.40748
65 55 3.52161
66 55 3.57126
67 55 3.80335
68 55 4.08882
69 55 4.10738
70 55 4.07167
71 55 4.10303
72 55 4.06481
73 55 4.00043
74 55 3.99153
75 55 4.02216
76 55 3.98331
77 55 3.82532
78 55 3.52907
79 55 3.20285
80 55 2.84121
81 55 2.4086
82 55 1.8998
83 55 1.50135
84 55 1.23611
85 55 1.01209
86 55 0.73688
87 55 0.340984
88 55 -0.126953
89 55 -0.484834
90 55 -0.668299
91 55 -0.715834
92 55 -0.84411
93 55 -1.22966
94 55 -1.80201
95 55 -2.56677
96 55 -3.47828
97 55 -4.10765
98 55 -4.82946
99 55 -5.68662
104 55 -40.9305
105 55 -40.9305
106 55 -40.9305
107 55 -40.9305
108 55 -40.9305
109 55 -40.9305
110 55 -40.9305
111 55 -40.9305
112 55 -40.9305
113 55 -40.9305
114 55 -40.9305
115 55 -40.9305
116 55 -40.9305
117 55 -40.9305
118 55 -40.9305
1 56 -40.9305
2 56 -40.9305
3 56 -40.9305
4 56 -40.9305
5 56 -40.9305
6 56 -40.9305
7 56 -40.9305
8 56 -40.9305
9 56 -40.9305
10 56 -40.9305
11 56 -40.9305
12 56 -40.9305
16 56 -6.99819
17 56 -5.99416
18 56 -5.18945
19 56 -4.32212
20 56 -3.48242
21 56 -2.76047
22 56 -2.21087
23 56 -1.8435
24 56 -1.6852
25 56 -1.63836
26 56 -1.60038
27 56 -1.41542
28 56 -1.26831
29 56 -1.09866
30 56 -1.05992
31 56 -1.0628
32 56 -1.09603
33 56 -1.11818
34 56 -1.15394
35 56 -1.20811
36 56 -1.18341
37 56 -0.969639
38 56 -0.955919
39 56 -1.1412
40 56 -1.60968
41 56 -1.91171
42 56 -1.98375
43 56 -2.09247
44 56 -2.2274
45 56 -2.30087
46 56 -2.23003
47 56 -1.95615
48 56 -1.73041
49 56 -1.52256
50 56 -1.23522
51 56 -1.08969
52 56 -1.05711
53 56 -1.11442
54 56 -1.32703
55 56 -1.50571
56 56 -1.17016
57 56 -0.763343
58 56 -0.482742
59 56 -0.342573
60 56 -0.135199
61 56 0.303999
67 56 2.88174
68 56 3.17125
69 56 3.30387
70 56 3.24544
71 56 3.19556
72 56 3.18735
73 56 3.14321
74 56 3.19071
75 56 3.26295
76 56 3.24613
77 56 2.98383
78 56 2.62068
79 56 2.28419
80 56 1.8984
81 56 1.46099
82 56 1.10178
83 56 0.8847
84 56 0.723418
85 56 0.570383
86 56 0.353214
87 56 0.0129836
88 56 -0.326293
89 56 -0.58352
90 56 -0.711974
91 56 -0.850306
92 56 -1.10248
93 56 -1.57123
94 56 -2.25006
95 56 -3.12868
96 56 -3.9445
97 56 -4.475
98 56 -5.24894
99 56 -6.2103
104 56 -40.9305
105 56 -40.9305
106 56 -40.9305
107 56 -40.9305
108 56 -40.9305
109 56 -40.9305
110 56 -40.9305
111 56 -40.9305
112 56 -40.9305
113 56 -40.9305
114 56 -40.9305
115 56 -40.9305
116 56 -40.9305
117 56 -40.9305
118 56 -40.9305
1 57 -40.9305
2 57 -40.9305
3 57 -40.9305
4 57 -40.9305
5 57 -40.9305
6 57 -40.9305
7 57 -40.9305
8 57 -40.9305
9 57 -40.9305
10 57 -40.9305
11 57 -40.9305
12 57 -40.9305
16 57 -7.07838
17 57 -6.10535
18 57 -5.22654
19 57 -4.40445
20 57 -3.65297
21 57 -2.90982
22 57 -2.35767
23 57 -1.98561
24 57 -1.70777
25 57 -1.59278
26 57 -1.49218
27 57 -1.36577
28 57 -1.29895
29 57 -1.16745
30 57 -1.13136
31 57 -1.12524
32 57 -1.12848
33 57 -1.14166
34 57 -1.18907
35 57 -1.33759
36 57 -1.35188
37 57 -1.17121
38 57 -1.16358
39 57 -1.3767
40 57 -1.85841
41 57 -2.02564
42 57 -2.05282
43 57 -2.11425
44 57 -2.26997
45 57 -2.40509
46 57 -2.41525
47 57 -2.17808
48 57 -1.97956
49 57 -1.84083
50 57 -1.53211
51 57 -1.29236
52 57 -1.2626
53 57 -1.39428
54 57 -1.52647
55 57 -1.42748
56 57 -1.06895
57 57 -0.82691
58 57 -0.679945
59 57 -0.603158
60 57 -0.510612
61 57 -0.469596
62 57 -0.308564
63 57 -0.0323206
64 57 0.354388
79 57 1.03718
80 57 0.812888
81 57 0.666443
82 57 0.596308
83 57 0.525589
84 57 0.435715
85 57 0.325742
86 57 0.160745
87 57 -0.132233
88 57 -0.431575
89 57 -0.650093
90 57 -0.823035
91 57 -1.08346
92 57 -1.45068
93 57 -2.04731
94 57 -2.7878
95 57 -3.68427
96 57 -4.334
97 57 -4.8802
98 57 -5.73622
103 57 -40.9305
104 57 -40.9305
105 57 -40.9305
106 57 -40.9305
107 57 -40.9305
108 57 -40.9305
109 57 -40.9305
110 57 -40.9305
111 57 -40.9305
112 57 -40.9305
113 57 -40.9305
114 57 -40.9305
115 57 -40.9305
116 57 -40.9305
117 57 -40.9305
118 57 -40.9305
1 58 -40.9305
2 58 -40.9305
3 58 -40.9305
4 58 -40.9305
5 58 -40.9305
6 58 -40.9305
7 58 -40.9305
8 58 -40.9305
9 58 -40.9305
10 58 -40.9305
11 58 -40.9305
12 58 -40.9305
13 58 -40.9305
16 58 -7.2191
17 58 -6.24145
18 58 -5.32211
19 58 -4.46633
20 58 -3.81296
21 58 -3.09087
22 58 -2.54948
23 58 -2.15975
24 58 -1.87795
25 58 -1.62743
26 58 -1.43909
27 58 -1.28215
28 58 -1.26163
29 58 -1.18754
30 58 -1.15491
31 58 -1.14523
32 58 -1.13869
33 58 -1.15519
34 58 -1.25158
35 58 -1.4862
36 58 -1.62878
37 58 -1.48363
38 58 -1.45882
39 58 -1.68715
40 58 -2.04163
41 58 -2.09287
42 58 -2.11212
43 58 -2.14475
44 58 -2.38763
45 58 -2.59109
46 58 -2.62663
47 58 -2.47049
48 58 -2.298
49 58 -2.19874
50 58 -1.92019
51 58 -1.62946
52 58 -1.53792
53 58 -1.63719
54 58 -1.66277
55 58 -1.44429
56 58 -1.11292
57 58 -0.929904
58 58 -0.845433
59 58 -0.78309
60 58 -0.79717
61 58 -0.871209
62 58 -0.823053
63 58 -0.6663
64 58 -0.513461
65 58 -0.412309
66 58 -0.0910228
67 58 0.123124
68 58 0.44987
69 58 0.708229
70 58 0.435292
71 58 0.302848
72 58 0.203535
73 58 0.228318
74 58 0.342686
75 58 0.672798
76 58 0.58889
77 58 0.247339
78 58 0.0018683
79 58 0.00852357
80 58 0.0945346
81 58 0.162432
82 58 0.243368
83 58 0.31723
84 58 0.285427
85 58 0.195362
86 58 0.0140974
87 58 -0.281536
88 58 -0.563643
89 58 -0.800827
90 58 -1.07989
91 58 -1.45523
92 58 -1.96162
93 58 -2.6081
94 58 -3.31926
95 58 -4.15
96 58 -4.73847
97 58 -5.35462
98 58 -6.36539
103 58 -40.9305
104 58 -40.9305
105 58 -40.9305
106 58 -40.9305
107 58 -40.9305
108 58 -40.9305
109 58 -40.9305
110 58 -40.9305
111 58 -40.9305
112 58 -40.9305
113 58 -40.9305
114 58 -40.9305
115 58 -40.9305
116 58 -40.9305
117 58 -40.9305
118 58 -40.9305
1 59 -40.9305
2 59 -40.9305
3 59 -40.9305
4 59 -40.9305
5 59 -40.9305
6 59 -40.9305
7 59 -40.9305
8 59 -40.9305
9 59 -40.9305
10 59 -40.9305
11 59 -40.9305
12 59 -40.9305
13 59 -40.9305
16 59 -7.31
17 59 -6.35612
18 59 -5.42445
19 59 -4.54195
20 59 -3.90379
21 59 -3.27654
22 59 -2.77969
23 59 -2.37777
24 59 -2.06656
25 59 -1.77051
26 59 -1.49516
27 59 -1.25121
28 59 -1.23682
29 59 -1.22728
30 59 -1.20797
31 59 -1.18141
32 59 -1.19036
33 59 -1.26253
34 59 -1.40812
35 59 -1.72158
36 59 -1.93744
37 59 -1.87642
38 59 -1.83639
39 59 -2.0315
40 59 -2.1638
41 59 -2.16117
42 59 -2.169
43 59 -2.19259
44 59 -2.52367
45 59 -2.81688
46 59 -2.88981
47 59 -2.83388
48 59 -2.70632
49 59 -2.59901
50 59 -2.34408
51 59 -2.06047
52 59 -1.90465
53 59 -1.93453
54 59 -1.85314
55 59 -1.64947
56 59 -1.35194
57 59 -1.10951
58 59 -0.988792
59 59 -0.932701
60 59 -1.00818
61 59 -1.0278
62 59 -0.953962
63 59 -0.901956
64 59 -0.886815
65 59 -0.928427
66 59 -0.903834
67 59 -0.559923
68 59 -0.547113
69 59 -0.506764
70 59 -0.394344
