ply
format ascii 1.0
comment Created by Open3D
element vertex 2985
property double x
property double y
property double z
end_header
203 124 -10.4607
204 124 -10.4607
205 124 -10.4607
206 124 -10.4607
207 124 -10.4607
208 124 -10.4607
209 124 -10.4607
210 124 -10.4607
211 124 -10.4607
212 124 -10.4607
213 124 -10.4607
214 124 -10.4607
215 124 -10.4607
216 124 -10.4607
217 124 -10.4607
218 124 -10.4607
219 124 -10.4607
220 124 -10.4607
221 124 -10.4607
222 124 -10.4607
223 124 -10.4607
224 124 -10.4607
225 124 -10.4607
226 124 -10.4607
227 124 -10.4607
228 124 -10.4607
229 124 -10.4607
230 124 -10.4607
231 124 -10.4607
232 124 -10.4607
233 124 -10.4607
234 124 -10.4607
235 124 -10.4607
236 124 -10.4607
237 124 -10.4607
238 124 -10.4607
1 125 -10.4607
2 125 -10.4607
3 125 -10.4607
4 125 -10.4607
5 125 -10.4607
6 125 -10.4607
7 125 -10.4607
8 125 -10.4607
9 125 -10.4607
10 125 -10.4607
11 125 -10.4607
12 125 -10.4607
13 125 -10.4607
14 125 -10.4607
15 125 -10.4607
16 125 -10.4607
17 125 -10.4607
18 125 -10.4607
19 125 -10.4607
20 125 -10.4607
21 125 -10.4607
22 125 -10.4607
23 125 -10.4607
24 125 -10.4607
25 125 -10.4607
26 125 -10.4607
27 125 -10.4607
28 125 -10.4607
29 125 -10.4607
30 125 -10.4607
31 125 -10.4607
32 125 -10.4607
33 125 -10.4607
34 125 -10.4607
35 125 -10.4607
36 125 -10.4607
37 125 -10.4607
42 125 -6.15608
43 125 -5.92979
44 125 -5.70413
45 125 -5.47808
46 125 -5.25207
47 125 -5.02677
48 125 -4.8018
49 125 -4.57729
50 125 -4.35492
51 125 -4.13291
52 125 -3.91246
53 125 -3.6919
54 125 -3.47058
55 125 -3.25112
56 125 -3.03112
57 125 -2.81114
58 125 -2.59224
59 125 -2.37324
60 125 -2.15454
61 125 -1.93675
62 125 -1.71874
63 125 -1.50188
64 125 -1.286
65 125 -1.07015
66 125 -0.854934
67 125 -0.64051
68 125 -0.425493
69 125 -0.211967
70 125 0.0017585
71 125 0.216087
72 125 0.428928
73 125 0.641901
74 125 0.855555
75 125 1.06759
76 125 1.27897
77 125 1.49115
78 125 1.7014
79 125 1.91222
80 125 2.12375
81 125 2.33338
82 125 2.5423
83 125 2.751
84 125 2.95692
85 125 3.16329
86 125 3.37022
87 125 3.5753
88 125 3.78008
89 125 3.98527
90 125 4.18854
91 125 4.39241
92 125 4.59683
93 125 4.79915
94 125 5.002
95 125 5.20572
96 125 5.40755
97 125 5.60921
98 125 5.81135
99 125 6.01253
100 125 6.21462
101 125 6.41392
102 125 6.6103
103 125 6.81004
104 125 7.01398
105 125 7.20661
106 125 7.39614
107 125 7.5956
108 125 7.81306
109 125 7.99594
110 125 8.1653
111 125 8.34983
112 125 8.63772
113 125 8.78692
114 125 8.89677
115 125 8.97547
116 125 8.95824
117 125 8.96578
118 125 9.01146
119 125 9.1818
120 125 9.4756
121 125 9.75485
122 125 9.32034
123 125 9.23195
124 125 9.17977
125 125 9.26736
126 125 9.14237
127 125 9.00869
128 125 8.84896
129 125 8.57541
130 125 8.38417
131 125 8.21225
132 125 8.03254
133 125 7.82566
134 125 7.63791
135 125 7.46088
136 125 7.28675
137 125 7.10562
138 125 6.91496
139 125 6.72704
140 125 6.54235
141 125 6.35572
142 125 6.16741
143 125 5.98063
144 125 5.79589
145 125 5.61232
146 125 5.42543
147 125 5.23931
148 125 5.05458
149 125 4.87078
150 125 4.68705
151 125 4.5044
152 125 4.32278
153 125 4.14163
154 125 3.96003
155 125 3.77839
156 125 3.5966
157 125 3.4139
158 125 3.22896
159 125 3.04364
160 125 2.85836
161 125 2.67293
162 125 2.48676
163 125 2.29933
164 125 2.11253
165 125 1.92573
166 125 1.73821
167 125 1.55068
168 125 1.36275
169 125 1.17282
170 125 0.982181
171 125 0.791662
172 125 0.601192
173 125 0.410496
174 125 0.21898
175 125 0.0275452
176 125 -0.163813
177 125 -0.355308
178 125 -0.547236
179 125 -0.742346
180 125 -0.937382
181 125 -1.13259
182 125 -1.32846
183 125 -1.52402
184 125 -1.71911
185 125 -1.91618
186 125 -2.11361
187 125 -2.31068
188 125 -2.50733
189 125 -2.70516
190 125 -2.90563
191 125 -3.10579
192 125 -3.30566
193 125 -3.50626
194 125 -3.70673
195 125 -3.90691
196 125 -4.1068
197 125 -4.30726
198 125 -4.50709
199 125 -4.70487
204 125 -10.4607
205 125 -10.4607
206 125 -10.4607
207 125 -10.4607
208 125 -10.4607
209 125 -10.4607
210 125 -10.4607
211 125 -10.4607
212 125 -10.4607
213 125 -10.4607
214 125 -10.4607
215 125 -10.4607
216 125 -10.4607
217 125 -10.4607
218 125 -10.4607
219 125 -10.4607
220 125 -10.4607
221 125 -10.4607
222 125 -10.4607
223 125 -10.4607
224 125 -10.4607
225 125 -10.4607
226 125 -10.4607
227 125 -10.4607
228 125 -10.4607
229 125 -10.4607
230 125 -10.4607
231 125 -10.4607
232 125 -10.4607
233 125 -10.4607
234 125 -10.4607
235 125 -10.4607
236 125 -10.4607
237 125 -10.4607
238 125 -10.4607
1 126 -10.4607
2 126 -10.4607
3 126 -10.4607
4 126 -10.4607
5 126 -10.4607
6 126 -10.4607
7 126 -10.4607
8 126 -10.4607
9 126 -10.4607
10 126 -10.4607
11 126 -10.4607
12 126 -10.4607
13 126 -10.4607
14 126 -10.4607
15 126 -10.4607
16 126 -10.4607
17 126 -10.4607
18 126 -10.4607
19 126 -10.4607
20 126 -10.4607
21 126 -10.4607
22 126 -10.4607
23 126 -10.4607
24 126 -10.4607
25 126 -10.4607
26 126 -10.4607
27 126 -10.4607
28 126 -10.4607
29 126 -10.4607
30 126 -10.4607
31 126 -10.4607
32 126 -10.4607
33 126 -10.4607
34 126 -10.4607
35 126 -10.4607
36 126 -10.4607
41 126 -6.21625
42 126 -5.98947
43 126 -5.76196
44 126 -5.53571
45 126 -5.30918
46 126 -5.08198
47 126 -4.85628
48 126 -4.63085
49 126 -4.40635
50 126 -4.18354
51 126 -3.96091
52 126 -3.73906
53 126 -3.51803
54 126 -3.2967
55 126 -3.07541
56 126 -2.85439
57 126 -2.63342
58 126 -2.41414
59 126 -2.19483
60 126 -1.97508
61 126 -1.75693
62 126 -1.53876
63 126 -1.32029
64 126 -1.10417
65 126 -0.888491
66 126 -0.672302
67 126 -0.45762
68 126 -0.242894
69 126 -0.0281767
70 126 0.186134
71 126 0.400337
72 126 0.61457
73 126 0.827952
74 126 1.04166
75 126 1.25537
76 126 1.46734
77 126 1.67949
78 126 1.89148
79 126 2.10264
80 126 2.314
81 126 2.52469
82 126 2.73234
83 126 2.94031
84 126 3.14775
85 126 3.35443
86 126 3.56139
87 126 3.76827
88 126 3.97416
89 126 4.17933
90 126 4.3844
91 126 4.58894
92 126 4.79379
93 126 4.99779
94 126 5.20089
95 126 5.40528
96 126 5.6101
97 126 5.81158
98 126 6.01263
99 126 6.21685
100 126 6.42394
101 126 6.6211
102 126 6.81363
103 126 7.0146
104 126 7.2361
105 126 7.4225
106 126 7.59425
107 126 7.78392
108 126 8.0774
109 126 8.23224
110 126 8.35236
111 126 8.44398
112 126 8.4402
113 126 8.45895
114 126 8.51454
115 126 8.56418
116 126 8.58528
117 126 8.60756
118 126 8.76954
119 126 9.0786
120 126 9.37659
121 126 9.66468
122 126 9.25833
123 126 8.85458
124 126 8.81074
125 126 8.79441
126 126 8.72642
127 126 8.65024
128 126 8.60185
129 126 8.68958
130 126 8.56499
131 126 8.43306
132 126 8.27698
133 126 8.00963
134 126 7.82776
135 126 7.66724
136 126 7.50768
137 126 7.33222
138 126 7.12627
139 126 6.93611
140 126 6.754
141 126 6.56899
142 126 6.37708
143 126 6.18914
144 126 6.00556
145 126 5.82149
146 126 5.63542
147 126 5.44938
148 126 5.26542
149 126 5.08171
150 126 4.89826
151 126 4.7163
152 126 4.53606
153 126 4.35553
154 126 4.17521
155 126 3.99425
156 126 3.81319
157 126 3.63052
158 126 3.44477
159 126 3.25928
160 126 3.07438
161 126 2.88845
162 126 2.70222
163 126 2.51524
164 126 2.32897
165 126 2.14181
166 126 1.9545
167 126 1.76758
168 126 1.58107
169 126 1.39144
170 126 1.20102
171 126 1.01091
172 126 0.821115
173 126 0.630096
174 126 0.438662
175 126 0.247438
176 126 0.0565198
177 126 -0.135575
178 126 -0.3281
179 126 -0.521036
180 126 -0.715744
181 126 -0.911527
182 126 -1.10754
183 126 -1.30321
184 126 -1.49889
185 126 -1.69625
186 126 -1.89348
187 126 -2.09048
188 126 -2.28723
189 126 -2.4844
190 126 -2.68442
191 126 -2.88465
192 126 -3.08473
193 126 -3.2855
194 126 -3.48602
195 126 -3.68628
196 126 -3.88652
197 126 -4.08724
198 126 -4.28746
199 126 -4.4872
200 126 -4.68818
205 126 -10.4607
206 126 -10.4607
207 126 -10.4607
208 126 -10.4607
209 126 -10.4607
210 126 -10.4607
211 126 -10.4607
212 126 -10.4607
213 126 -10.4607
214 126 -10.4607
215 126 -10.4607
216 126 -10.4607
217 126 -10.4607
218 126 -10.4607
219 126 -10.4607
220 126 -10.4607
221 126 -10.4607
222 126 -10.4607
223 126 -10.4607
224 126 -10.4607
225 126 -10.4607
226 126 -10.4607
227 126 -10.4607
228 126 -10.4607
229 126 -10.4607
230 126 -10.4607
231 126 -10.4607
232 126 -10.4607
233 126 -10.4607
234 126 -10.4607
235 126 -10.4607
236 126 -10.4607
237 126 -10.4607
238 126 -10.4607
1 127 -10.4607
2 127 -10.4607
3 127 -10.4607
4 127 -10.4607
5 127 -10.4607
6 127 -10.4607
7 127 -10.4607
8 127 -10.4607
9 127 -10.4607
10 127 -10.4607
11 127 -10.4607
12 127 -10.4607
13 127 -10.4607
14 127 -10.4607
15 127 -10.4607
16 127 -10.4607
17 127 -10.4607
18 127 -10.4607
19 127 -10.4607
20 127 -10.4607
21 127 -10.4607
22 127 -10.4607
23 127 -10.4607
24 127 -10.4607
25 127 -10.4607
26 127 -10.4607
27 127 -10.4607
28 127 -10.4607
29 127 -10.4607
30 127 -10.4607
31 127 -10.4607
32 127 -10.4607
33 127 -10.4607
34 127 -10.4607
35 127 -10.4607
40 127 -6.2796
41 127 -6.05093
42 127 -5.82359
43 127 -5.59598
44 127 -5.36832
45 127 -5.14096
46 127 -4.91383
47 127 -4.68701
48 127 -4.46099
49 127 -4.23602
50 127 -4.01266
51 127 -3.78922
52 127 -3.56604
53 127 -3.34445
54 127 -3.12277
55 127 -2.90065
56 127 -2.68048
57 127 -2.46007
58 127 -2.23966
59 127 -2.01975
60 127 -1.80009
61 127 -1.58073
62 127 -1.36198
63 127 -1.14352
64 127 -0.9263
65 127 -0.71023
66 127 -0.494298
67 127 -0.278345
68 127 -0.0631839
69 127 0.152601
70 127 0.367037
71 127 0.58165
72 127 0.79694
73 127 1.01077
74 127 1.22484
75 127 1.43955
76 127 1.65262
77 127 1.86509
78 127 2.07824
79 127 2.28993
80 127 2.50199
81 127 2.71311
82 127 2.92121
83 127 3.12934
84 127 3.33814
85 127 3.54527
86 127 3.75267
87 127 3.96099
88 127 4.16788
89 127 4.3735
90 127 4.57958
91 127 4.78516
92 127 4.99158
93 127 5.19615
94 127 5.39847
95 127 5.60442
96 127 5.81477
97 127 6.01439
98 127 6.21074
99 127 6.41708
100 127 6.64202
101 127 6.83207
102 127 7.00729
103 127 7.19866
104 127 7.4933
105 127 7.65182
106 127 7.77444
107 127 7.86841
108 127 7.86982
109 127 7.89626
110 127 7.96088
111 127 8.02237
112 127 8.05838
113 127 8.09414
114 127 8.13825
115 127 8.1801
116 127 8.21115
117 127 8.37025
118 127 8.67943
119 127 8.98645
120 127 9.2875
121 127 9.58329
122 127 9.1905
123 127 8.79756
124 127 8.4125
125 127 8.3731
126 127 8.31993
127 127 8.26265
128 127 8.21863
129 127 8.20155
130 127 8.13358
131 127 8.05973
132 127 8.01566
133 127 8.10811
134 127 7.99155
135 127 7.87188
136 127 7.74353
137 127 7.58932
138 127 7.32178
139 127 7.13592
140 127 6.96758
141 127 6.78918
142 127 6.58279
143 127 6.39328
144 127 6.2135
145 127 6.03172
146 127 5.84361
147 127 5.65672
148 127 5.47377
149 127 5.29142
150 127 5.10796
151 127 4.92649
152 127 4.74742
153 127 4.56829
154 127 4.38802
155 127 4.20721
156 127 4.02619
157 127 3.8445
158 127 3.65964
159 127 3.47434
160 127 3.28922
161 127 3.10333
162 127 2.91723
163 127 2.73045
164 127 2.54411
165 127 2.35713
166 127 2.17038
167 127 1.98407
168 127 1.79851
169 127 1.60928
170 127 1.41956
171 127 1.22986
172 127 1.04007
173 127 0.8492
174 127 0.658133
175 127 0.467025
176 127 0.275858
177 127 0.0836791
178 127 -0.108555
179 127 -0.300469
180 127 -0.495207
181 127 -0.69113
182 127 -0.886982
183 127 -1.08264
184 127 -1.27911
185 127 -1.47644
186 127 -1.67359
187 127 -1.87055
188 127 -2.06761
189 127 -2.26542
190 127 -2.46372
191 127 -2.66364
192 127 -2.86402
193 127 -3.06498
194 127 -3.26558
195 127 -3.46565
196 127 -3.66664
197 127 -3.86772
198 127 -4.06829
199 127 -4.26829
200 127 -4.4693
201 127 -4.67383
206 127 -10.4607
207 127 -10.4607
208 127 -10.4607
209 127 -10.4607
210 127 -10.4607
211 127 -10.4607
212 127 -10.4607
213 127 -10.4607
214 127 -10.4607
215 127 -10.4607
216 127 -10.4607
217 127 -10.4607
218 127 -10.4607
219 127 -10.4607
220 127 -10.4607
221 127 -10.4607
222 127 -10.4607
223 127 -10.4607
224 127 -10.4607
225 127 -10.4607
226 127 -10.4607
227 127 -10.4607
228 127 -10.4607
229 127 -10.4607
230 127 -10.4607
231 127 -10.4607
232 127 -10.4607
233 127 -10.4607
234 127 -10.4607
235 127 -10.4607
236 127 -10.4607
237 127 -10.4607
238 127 -10.4607
1 128 -10.4607
2 128 -10.4607
3 128 -10.4607
4 128 -10.4607
5 128 -10.4607
6 128 -10.4607
7 128 -10.4607
8 128 -10.4607
9 128 -10.4607
10 128 -10.4607
11 128 -10.4607
12 128 -10.4607
13 128 -10.4607
14 128 -10.4607
15 128 -10.4607
16 128 -10.4607
17 128 -10.4607
18 128 -10.4607
19 128 -10.4607
20 128 -10.4607
21 128 -10.4607
22 128 -10.4607
23 128 -10.4607
24 128 -10.4607
25 128 -10.4607
26 128 -10.4607
27 128 -10.4607
28 128 -10.4607
29 128 -10.4607
30 128 -10.4607
31 128 -10.4607
32 128 -10.4607
33 128 -10.4607
34 128 -10.4607
39 128 -6.3483
40 128 -6.11886
41 128 -5.89022
42 128 -5.66157
43 128 -5.43289
44 128 -5.20394
45 128 -4.97635
46 128 -4.74899
47 128 -4.52101
48 128 -4.29474
49 128 -4.07007
50 128 -3.84547
51 128 -3.62132
52 128 -3.39744
53 128 -3.17455
54 128 -2.95214
55 128 -2.72996
56 128 -2.50813
57 128 -2.28671
58 128 -2.06515
59 128 -1.84517
60 128 -1.62479
61 128 -1.4044
62 128 -1.18557
63 128 -0.967022
64 128 -0.74859
65 128 -0.532504
66 128 -0.316316
67 128 -0.0994868
68 128 0.115902
69 128 0.331477
70 128 0.547064
71 128 0.762286
72 128 0.977506
73 128 1.19264
74 128 1.40737
75 128 1.6221
76 128 1.83674
77 128 2.05002
78 128 2.26313
79 128 2.47619
80 128 2.68881
81 128 2.89916
82 128 3.10855
83 128 3.31771
84 128 3.52685
85 128 3.73519
86 128 3.943
87 128 4.15181
88 128 4.36103
89 128 4.5672
90 128 4.77188
91 128 4.97989
92 128 5.19123
93 128 5.39335
94 128 5.59178
95 128 5.79916
96 128 6.02676
97 128 6.21983
98 128 6.39885
99 128 6.59527
100 128 6.89409
101 128 7.05597
102 128 7.18135
103 128 7.2788
104 128 7.28284
105 128 7.311
106 128 7.37721
107 128 7.44004
108 128 7.47831
109 128 7.51922
110 128 7.57148
111 128 7.62641
112 128 7.67549
113 128 7.721
114 128 7.76546
115 128 7.80551
116 128 7.97028
117 128 8.28154
118 128 8.5913
119 128 8.89891
120 128 9.20365
121 128 9.50512
122 128 9.1198
123 128 8.73266
124 128 8.34822
125 128 7.96448
126 128 7.91512
127 128 7.8607
128 128 7.80738
129 128 7.76165
130 128 7.70696
131 128 7.65415
132 128 7.61675
133 128 7.6056
134 128 7.54132
135 128 7.46232
136 128 7.3859
137 128 7.34202
138 128 7.43541
139 128 7.31703
140 128 7.19031
141 128 7.03739
142 128 6.77166
143 128 6.58773
144 128 6.42252
145 128 6.24831
146 128 6.04592
147 128 5.85941
148 128 5.68063
149 128 5.49927
150 128 5.31271
151 128 5.13129
152 128 4.95492
153 128 4.77922
154 128 4.60138
155 128 4.42042
156 128 4.23894
157 128 4.05701
158 128 3.87426
159 128 3.68923
160 128 3.50396
161 128 3.31818
162 128 3.13173
163 128 2.94525
164 128 2.759
165 128 2.57223
166 128 2.38586
167 128 2.19984
168 128 2.01405
169 128 1.82693
170 128 1.63811
171 128 1.4489
172 128 1.25924
173 128 1.06852
174 128 0.87767
175 128 0.686696
176 128 0.495322
177 128 0.30301
178 128 0.110694
179 128 -0.0817178
180 128 -0.27509
181 128 -0.470781
182 128 -0.666585
183 128 -0.862476
184 128 -1.05934
185 128 -1.25678
186 128 -1.45387
187 128 -1.65048
188 128 -1.84811
189 128 -2.04595
190 128 -2.24319
191 128 -2.44288
192 128 -2.64358
193 128 -2.84481
194 128 -3.04567
195 128 -3.24622
196 128 -3.44753
197 128 -3.64871
198 128 -3.84966
199 128 -4.0505
200 128 -4.25239
201 128 -4.45513
202 128 -4.65964
207 128 -10.4607
208 128 -10.4607
209 128 -10.4607
210 128 -10.4607
211 128 -10.4607
212 128 -10.4607
213 128 -10.4607
214 128 -10.4607
215 128 -10.4607
216 128 -10.4607
217 128 -10.4607
218 128 -10.4607
219 128 -10.4607
220 128 -10.4607
221 128 -10.4607
222 128 -10.4607
223 128 -10.4607
224 128 -10.4607
225 128 -10.4607
226 128 -10.4607
227 128 -10.4607
228 128 -10.4607
229 128 -10.4607
230 128 -10.4607
231 128 -10.4607
232 128 -10.4607
233 128 -10.4607
234 128 -10.4607
235 128 -10.4607
236 128 -10.4607
237 128 -10.4607
238 128 -10.4607
1 129 -10.4607
2 129 -10.4607
3 129 -10.4607
4 129 -10.4607
5 129 -10.4607
6 129 -10.4607
7 129 -10.4607
8 129 -10.4607
9 129 -10.4607
10 129 -10.4607
11 129 -10.4607
12 129 -10.4607
13 129 -10.4607
14 129 -10.4607
15 129 -10.4607
16 129 -10.4607
17 129 -10.4607
18 129 -10.4607
19 129 -10.4607
20 129 -10.4607
21 129 -10.4607
22 129 -10.4607
23 129 -10.4607
24 129 -10.4607
25 129 -10.4607
26 129 -10.4607
27 129 -10.4607
28 129 -10.4607
29 129 -10.4607
30 129 -10.4607
31 129 -10.4607
32 129 -10.4607
33 129 -10.4607
38 129 -6.42013
39 129 -6.18907
40 129 -5.95916
41 129 -5.72951
42 129 -5.50003
43 129 -5.27077
44 129 -5.04161
45 129 -4.81303
46 129 -4.58479
47 129 -4.35642
48 129 -4.12946
49 129 -3.90405
50 129 -3.67828
51 129 -3.45389
52 129 -3.22892
53 129 -3.00464
54 129 -2.782
55 129 -2.55893
56 129 -2.33584
57 129 -2.11422
58 129 -1.89226
59 129 -1.67097
60 129 -1.45016
61 129 -1.22973
62 129 -1.00989
63 129 -0.791212
64 129 -0.572828
65 129 -0.355588
66 129 -0.138975
67 129 0.0775776
68 129 0.294097
69 129 0.51034
70 129 0.726947
71 129 0.942225
72 129 1.15816
73 129 1.3744
74 129 1.58922
75 129 1.80474
76 129 2.0205
77 129 2.23443
78 129 2.44809
79 129 2.66236
80 129 2.87511
81 129 3.08534
82 129 3.29559
83 129 3.5054
84 129 3.71637
85 129 3.92509
86 129 4.13168
87 129 4.34221
88 129 4.55669
89 129 4.76066
90 129 4.96085
91 129 5.17074
92 129 5.39942
93 129 5.59425
94 129 5.77558
95 129 5.97304
96 129 6.27326
97 129 6.43877
98 129 6.56892
99 129 6.67079
100 129 6.68065
101 129 6.71248
102 129 6.78241
103 129 6.84795
104 129 6.88823
105 129 6.93086
106 129 6.98335
107 129 7.03622
108 129 7.08287
109 129 7.12912
110 129 7.17939
111 129 7.23501
112 129 7.2946
113 129 7.34783
114 129 7.3947
115 129 7.56517
116 129 7.88111
117 129 8.19433
118 129 8.50515
119 129 8.81425
120 129 9.12173
121 129 9.42789
122 129 9.04742
123 129 8.6646
124 129 8.28277
125 129 7.90054
126 129 7.514
127 129 7.45767
128 129 7.38854
129 129 7.33008
130 129 7.27847
131 129 7.23179
132 129 7.19158
133 129 7.15622
134 129 7.1058
135 129 7.04848
136 129 6.99434
137 129 6.95746
138 129 6.94857
139 129 6.88897
140 129 6.82196
141 129 6.78336
142 129 6.87877
143 129 6.76351
144 129 6.63964
145 129 6.49011
146 129 6.22939
147 129 6.0496
148 129 5.88542
149 129 5.71231
150 129 5.51237
151 129 5.33109
152 129 5.16084
153 129 4.99234
154 129 4.81787
155 129 4.63421
156 129 4.45123
157 129 4.27036
158 129 4.08942
159 129 3.90367
160 129 3.71828
161 129 3.53254
162 129 3.34627
163 129 3.15984
164 129 2.9735
165 129 2.78697
166 129 2.601
167 129 2.41542
168 129 2.23004
169 129 2.0445
170 129 1.85636
171 129 1.66842
172 129 1.47858
173 129 1.288
174 129 1.09736
175 129 0.906793
176 129 0.714839
177 129 0.522367
178 129 0.330061
179 129 0.138016
180 129 -0.0553301
181 129 -0.251022
182 129 -0.446341
183 129 -0.642532
184 129 -0.839885
185 129 -1.03745
186 129 -1.23462
187 129 -1.43154
188 129 -1.62928
189 129 -1.82705
190 129 -2.02483
191 129 -2.22328
192 129 -2.42418
193 129 -2.62501
194 129 -2.82603
195 129 -3.02692
196 129 -3.22853
197 129 -3.42993
198 129 -3.63114
199 129 -3.83251
200 129 -4.03463
201 129 -4.23645
202 129 -4.4411
203 129 -4.64597
208 129 -10.4607
209 129 -10.4607
210 129 -10.4607
211 129 -10.4607
212 129 -10.4607
213 129 -10.4607
214 129 -10.4607
215 129 -10.4607
216 129 -10.4607
217 129 -10.4607
218 129 -10.4607
219 129 -10.4607
220 129 -10.4607
221 129 -10.4607
222 129 -10.4607
223 129 -10.4607
224 129 -10.4607
225 129 -10.4607
226 129 -10.4607
227 129 -10.4607
228 129 -10.4607
229 129 -10.4607
230 129 -10.4607
231 129 -10.4607
232 129 -10.4607
233 129 -10.4607
234 129 -10.4607
235 129 -10.4607
236 129 -10.4607
237 129 -10.4607
238 129 -10.4607
1 130 -10.4607
2 130 -10.4607
3 130 -10.4607
4 130 -10.4607
5 130 -10.4607
6 130 -10.4607
7 130 -10.4607
8 130 -10.4607
9 130 -10.4607
10 130 -10.4607
11 130 -10.4607
12 130 -10.4607
13 130 -10.4607
14 130 -10.4607
15 130 -10.4607
16 130 -10.4607
17 130 -10.4607
18 130 -10.4607
19 130 -10.4607
20 130 -10.4607
21 130 -10.4607
22 130 -10.4607
23 130 -10.4607
24 130 -10.4607
25 130 -10.4607
26 130 -10.4607
27 130 -10.4607
28 130 -10.4607
29 130 -10.4607
30 130 -10.4607
31 130 -10.4607
32 130 -10.4607
37 130 -6.49476
38 130 -6.26347
39 130 -6.03176
40 130 -5.80044
41 130 -5.56931
42 130 -5.33871
43 130 -5.10932
44 130 -4.87948
45 130 -4.64984
46 130 -4.42145
47 130 -4.19243
48 130 -3.96492
49 130 -3.73914
50 130 -3.51286
51 130 -3.28703
52 130 -3.06168
53 130 -2.83625
54 130 -2.61228
55 130 -2.38862
56 130 -2.16523
57 130 -1.94207
58 130 -1.71937
59 130 -1.49678
60 130 -1.27589
61 130 -1.05477
62 130 -0.834355
63 130 -0.615821
64 130 -0.397126
65 130 -0.178545
66 130 0.037718
67 130 0.254675
68 130 0.472064
69 130 0.688135
70 130 0.90491
71 130 1.12151
72 130 1.3378
73 130 1.55432
74 130 1.77039
75 130 1.98642
76 130 2.20282
77 130 2.41801
78 130 2.63175
79 130 2.84677
80 130 3.06129
81 130 3.27084
82 130 3.47975
83 130 3.69195
84 130 3.90749
85 130 4.11378
86 130 4.31641
87 130 4.52799
88 130 4.7595
89 130 4.95682
90 130 5.13947
91 130 5.33944
92 130 5.64147
93 130 5.80799
94 130 5.93987
95 130 6.04416
96 130 6.05604
97 130 6.09188
98 130 6.16663
99 130 6.23858
100 130 6.28375
101 130 6.32971
102 130 6.38659
103 130 6.44235
104 130 6.49127
105 130 6.53956
106 130 6.58913
107 130 6.6386
108 130 6.68654
109 130 6.73328
110 130 6.78194
111 130 6.83834
112 130 6.92008
113 130 6.98101
114 130 7.15904
115 130 7.47858
116 130 7.79447
117 130 8.10815
118 130 8.42056
119 130 8.73119
120 130 9.04114
121 130 9.35086
122 130 8.97437
123 130 8.59554
124 130 8.21774
125 130 7.8403
126 130 7.45991
127 130 7.06743
128 130 6.95902
129 130 6.89166
130 130 6.8446
131 130 6.80157
132 130 6.76158
133 130 6.72189
134 130 6.6772
135 130 6.62978
136 130 6.58411
137 130 6.54493
138 130 6.51241
139 130 6.46832
140 130 6.42353
141 130 6.3939
142 130 6.38893
143 130 6.33278
144 130 6.2686
145 130 6.2332
146 130 6.33194
147 130 6.22018
148 130 6.0982
149 130 5.95143
150 130 5.69336
151 130 5.51764
152 130 5.36408
153 130 5.21143
154 130 5.04355
155 130 4.8451
156 130 4.66046
157 130 4.4838
158 130 4.3047
159 130 4.11775
160 130 3.93104
161 130 3.74619
162 130 3.56098
163 130 3.37435
164 130 3.18728
165 130 3.00113
166 130 2.81576
167 130 2.6308
168 130 2.44527
169 130 2.25998
170 130 2.0744
171 130 1.88692
172 130 1.69775
173 130 1.50754
174 130 1.31696
175 130 1.1261
176 130 0.933961
177 130 0.741558
178 130 0.549166
179 130 0.356882
180 130 0.164073
181 130 -0.031636
182 130 -0.227177
183 130 -0.423597
184 130 -0.621117
185 130 -0.818496
186 130 -1.01564
187 130 -1.21265
188 130 -1.41044
189 130 -1.60814
190 130 -1.80582
191 130 -2.0039
192 130 -2.20485
193 130 -2.40574
194 130 -2.60651
195 130 -2.80779
196 130 -3.00972
197 130 -3.21133
198 130 -3.41246
199 130 -3.61466
200 130 -3.81718
201 130 -4.01957
202 130 -4.22235
203 130 -4.42778
204 130 -4.63441
209 130 -10.4607
210 130 -10.4607
211 130 -10.4607
212 130 -10.4607
213 130 -10.4607
214 130 -10.4607
215 130 -10.4607
216 130 -10.4607
217 130 -10.4607
218 130 -10.4607
219 130 -10.4607
220 130 -10.4607
221 130 -10.4607
222 130 -10.4607
223 130 -10.4607
224 130 -10.4607
225 130 -10.4607
226 130 -10.4607
227 130 -10.4607
228 130 -10.4607
229 130 -10.4607
230 130 -10.4607
231 130 -10.4607
232 130 -10.4607
233 130 -10.4607
234 130 -10.4607
235 130 -10.4607
236 130 -10.4607
237 130 -10.4607
238 130 -10.4607
1 131 -10.4607
2 131 -10.4607
3 131 -10.4607
4 131 -10.4607
5 131 -10.4607
6 131 -10.4607
7 131 -10.4607
8 131 -10.4607
9 131 -10.4607
10 131 -10.4607
11 131 -10.4607
12 131 -10.4607
13 131 -10.4607
14 131 -10.4607
15 131 -10.4607
16 131 -10.4607
17 131 -10.4607
18 131 -10.4607
19 131 -10.4607
20 131 -10.4607
21 131 -10.4607
22 131 -10.4607
23 131 -10.4607
24 131 -10.4607
25 131 -10.4607
26 131 -10.4607
27 131 -10.4607
28 131 -10.4607
29 131 -10.4607
30 131 -10.4607
31 131 -10.4607
36 131 -6.57209
37 131 -6.33884
38 131 -6.10721
39 131 -5.87475
40 131 -5.64198
41 131 -5.41042
42 131 -5.17926
43 131 -4.94862
44 131 -4.7187
45 131 -4.48849
46 131 -4.25875
47 131 -4.02948
48 131 -3.80178
49 131 -3.57471
50 131 -3.34772
51 131 -3.12017
52 131 -2.8945
53 131 -2.66817
54 131 -2.44272
55 131 -2.21876
56 131 -1.9944
57 131 -1.76994
58 131 -1.54709
59 131 -1.32406
60 131 -1.10184
61 131 -0.880638
62 131 -0.660134
63 131 -0.440589
64 131 -0.222026
65 131 -0.0034805
66 131 0.213718
67 131 0.43063
68 131 0.648116
69 131 0.865226
70 131 1.08234
71 131 1.30059
72 131 1.51721
73 131 1.73401
74 131 1.95106
75 131 2.16775
76 131 2.38569
77 131 2.60143
78 131 2.81415
79 131 3.0307
80 131 3.24932
81 131 3.45628
82 131 3.66061
83 131 3.87462
84 131 4.10717
85 131 4.30612
86 131 4.49167
87 131 4.69317
88 131 4.99652
89 131 5.16591
90 131 5.30012
91 131 5.40606
92 131 5.42113
93 131 5.45954
94 131 5.53558
95 131 5.60815
96 131 5.65626
97 131 5.70607
98 131 5.76716
99 131 5.8289
100 131 5.88258
101 131 5.93493
102 131 5.98955
103 131 6.0436
104 131 6.09494
105 131 6.14569
106 131 6.195
107 131 6.24376
108 131 6.29012
109 131 6.33482
110 131 6.37799
111 131 6.41501
112 131 6.56638
113 131 6.7574
114 131 7.0798
115 131 7.39565
116 131 7.70988
117 131 8.02324
118 131 8.33621
119 131 8.64882
120 131 8.96078
121 131 9.27316
122 131 8.90017
123 131 8.52498
124 131 8.1519
125 131 7.78195
126 131 7.41745
127 131 7.06989
128 131 6.78487
129 131 6.43294
130 131 6.40364
131 131 6.36832
132 131 6.33126
133 131 6.29257
134 131 6.25132
135 131 6.2089
136 131 6.16599
137 131 6.12573
138 131 6.08785
139 131 6.04836
140 131 6.0106
141 131 5.97835
142 131 5.95029
143 131 5.91009
144 131 5.86878
145 131 5.84216
146 131 5.84184
147 131 5.7879
148 131 5.72544
149 131 5.69152
150 131 5.79128
151 131 5.68114
152 131 5.56642
153 131 5.44578
154 131 5.29982
155 131 5.0413
156 131 4.86174
157 131 4.69971
158 131 4.52787
159 131 4.32762
160 131 4.13981
161 131 3.95951
162 131 3.77714
163 131 3.58714
164 131 3.39923
165 131 3.21454
166 131 3.03015
167 131 2.84457
168 131 2.65936
169 131 2.47579
170 131 2.29258
171 131 2.10621
172 131 1.91727
173 131 1.72746
174 131 1.53688
175 131 1.3458
176 131 1.15337
177 131 0.960761
178 131 0.768185
179 131 0.575384
180 131 0.381734
181 131 0.187605
182 131 -0.00833674
183 131 -0.20517
184 131 -0.402468
185 131 -0.599762
186 131 -0.796768
187 131 -0.993866
188 131 -1.19166
189 131 -1.38924
190 131 -1.5864
191 131 -1.78435
192 131 -1.98558
193 131 -2.18657
194 131 -2.38718
195 131 -2.58888
196 131 -2.79124
197 131 -2.99318
198 131 -3.19485
199 131 -3.39734
200 131 -3.59985
201 131 -3.80231
202 131 -4.00489
203 131 -4.2105
204 131 -4.41728
205 131 -4.62391
210 131 -10.4607
211 131 -10.4607
212 131 -10.4607
213 131 -10.4607
214 131 -10.4607
215 131 -10.4607
216 131 -10.4607
217 131 -10.4607
218 131 -10.4607
219 131 -10.4607
220 131 -10.4607
221 131 -10.4607
222 131 -10.4607
223 131 -10.4607
224 131 -10.4607
225 131 -10.4607
226 131 -10.4607
227 131 -10.4607
228 131 -10.4607
229 131 -10.4607
230 131 -10.4607
231 131 -10.4607
232 131 -10.4607
233 131 -10.4607
234 131 -10.4607
235 131 -10.4607
236 131 -10.4607
237 131 -10.4607
238 131 -10.4607
1 132 -10.4607
2 132 -10.4607
3 132 -10.4607
4 132 -10.4607
5 132 -10.4607
6 132 -10.4607
7 132 -10.4607
8 132 -10.4607
9 132 -10.4607
10 132 -10.4607
11 132 -10.4607
12 132 -10.4607
13 132 -10.4607
14 132 -10.4607
15 132 -10.4607
16 132 -10.4607
17 132 -10.4607
18 132 -10.4607
19 132 -10.4607
20 132 -10.4607
21 132 -10.4607
22 132 -10.4607
23 132 -10.4607
24 132 -10.4607
25 132 -10.4607
26 132 -10.4607
27 132 -10.4607
28 132 -10.4607
29 132 -10.4607
30 132 -10.4607
35 132 -6.65188
36 132 -6.41871
37 132 -6.18503
38 132 -5.9518
39 132 -5.7188
40 132 -5.48538
41 132 -5.25221
42 132 -5.02037
43 132 -4.78843
44 132 -4.55822
45 132 -4.32742
46 132 -4.09604
47 132 -3.8668
48 132 -3.63867
49 132 -3.41068
50 132 -3.18314
51 132 -2.95526
52 132 -2.72797
53 132 -2.50104
54 132 -2.27481
55 132 -2.04931
56 132 -1.82439
57 132 -1.59936
58 132 -1.37499
59 132 -1.15125
60 132 -0.927571
61 132 -0.706605
62 132 -0.485676
63 132 -0.264871
64 132 -0.0469066
65 132 0.17101
66 132 0.389503
67 132 0.606011
68 132 0.82387
69 132 1.0418
70 132 1.25865
71 132 1.47739
72 132 1.69642
73 132 1.91276
74 132 2.12884
75 132 2.34782
76 132 2.57005
77 132 2.78342
78 132 2.99241
79 132 3.20895
80 132 3.44389
81 132 3.64437
82 132 3.83112
83 132 4.03544
84 132 4.34046
85 132 4.51116
86 132 4.64766
87 132 4.75649
88 132 4.77394
89 132 4.81503
90 132 4.8944
91 132 4.96938
92 132 5.01955
93 132 5.07223
94 132 5.13476
95 132 5.19779
96 132 5.25352
97 132 5.30897
98 132 5.36722
99 132 5.42483
100 132 5.4808
101 132 5.5365
102 132 5.59181
103 132 5.64599
104 132 5.69935
105 132 5.7509
106 132 5.80143
107 132 5.85002
108 132 5.89535
109 132 5.93789
110 132 5.97717
111 132 6.1358
112 132 6.43149
113 132 6.70242
114 132 7.00408
115 132 7.31433
116 132 7.62599
117 132 7.93871
118 132 8.25205
119 132 8.56573
120 132 8.88001
121 132 9.19446
122 132 8.82399
123 132 8.45231
124 132 8.08292
125 132 7.71755
126 132 7.35805
127 132 7.00981
128 132 6.67705
129 132 6.3271
130 132 5.96665
131 132 5.93682
132 132 5.90257
133 132 5.86582
134 132 5.82661
135 132 5.78648
136 132 5.74522
137 132 5.70416
138 132 5.66488
139 132 5.62667
140 132 5.59074
141 132 5.55693
142 132 5.52377
143 132 5.48852
144 132 5.45427
145 132 5.42611
146 132 5.40224
147 132 5.36415
148 132 5.32415
149 132 5.29792
150 132 5.29563
151 132 5.2396
152 132 5.16668
153 132 5.09741
154 132 5.06064
155 132 5.15761
156 132 5.04553
157 132 4.92544
158 132 4.77948
159 132 4.52212
160 132 4.33988
161 132 4.17492
162 132 4.00021
163 132 3.79694
164 132 3.60799
165 132 3.4277
166 132 3.24573
167 132 3.05709
168 132 2.87182
169 132 2.69127
170 132 2.51214
171 132 2.32719
172 132 2.13767
173 132 1.94745
174 132 1.75731
175 132 1.56598
176 132 1.37297
177 132 1.17995
178 132 0.987453
179 132 0.793846
180 132 0.599891
181 132 0.40662
182 132 0.21019
183 132 0.0128394
184 132 -0.184532
185 132 -0.381296
186 132 -0.577786
187 132 -0.775266
188 132 -0.973073
189 132 -1.17073
190 132 -1.36834
191 132 -1.56704
192 132 -1.76653
193 132 -1.96776
194 132 -2.1689
195 132 -2.37083
196 132 -2.57315
197 132 -2.77529
198 132 -2.97729
199 132 -3.18001
200 132 -3.38256
201 132 -3.5849
202 132 -3.78707
203 132 -3.99326
204 132 -4.2003
205 132 -4.40716
206 132 -4.61417
211 132 -10.4607
212 132 -10.4607
213 132 -10.4607
214 132 -10.4607
215 132 -10.4607
216 132 -10.4607
217 132 -10.4607
218 132 -10.4607
219 132 -10.4607
220 132 -10.4607
221 132 -10.4607
222 132 -10.4607
223 132 -10.4607
224 132 -10.4607
225 132 -10.4607
226 132 -10.4607
227 132 -10.4607
228 132 -10.4607
229 132 -10.4607
230 132 -10.4607
231 132 -10.4607
232 132 -10.4607
233 132 -10.4607
234 132 -10.4607
235 132 -10.4607
236 132 -10.4607
237 132 -10.4607
238 132 -10.4607
1 133 -10.4607
2 133 -10.4607
3 133 -10.4607
4 133 -10.4607
5 133 -10.4607
6 133 -10.4607
7 133 -10.4607
8 133 -10.4607
9 133 -10.4607
10 133 -10.4607
11 133 -10.4607
12 133 -10.4607
13 133 -10.4607
14 133 -10.4607
15 133 -10.4607
16 133 -10.4607
17 133 -10.4607
18 133 -10.4607
19 133 -10.4607
20 133 -10.4607
21 133 -10.4607
22 133 -10.4607
23 133 -10.4607
24 133 -10.4607
25 133 -10.4607
26 133 -10.4607
27 133 -10.4607
28 133 -10.4607
29 133 -10.4607
34 133 -6.73475
35 133 -6.49944
36 133 -6.26582
37 133 -6.03155
38 133 -5.79659
39 133 -5.56327
40 133 -5.3293
41 133 -5.09465
42 133 -4.86238
43 133 -4.63037
44 133 -4.39831
45 133 -4.16695
46 133 -3.93497
47 133 -3.70483
48 133 -3.47617
49 133 -3.24669
50 133 -3.01889
51 133 -2.7905
52 133 -2.56154
53 133 -2.33441
54 133 -2.10692
55 133 -1.87975
56 133 -1.6545
57 133 -1.42886
58 133 -1.20274
59 133 -0.978695
60 133 -0.755295
61 133 -0.532536
62 133 -0.311092
63 133 -0.0901876
64 133 0.128259
65 133 0.344925
66 133 0.562302
67 133 0.780042
68 133 0.998841
69 133 1.21623
70 133 1.43306
71 133 1.6532
72 133 1.87781
73 133 2.09179
74 133 2.303
75 133 2.52413
76 133 2.76327
77 133 2.9688
78 133 3.16071
79 133 3.367
80 133 3.67224
81 133 3.84565
82 133 3.98404
83 133 4.0949
84 133 4.11627
85 133 4.15917
86 133 4.24057
87 133 4.31776
88 133 4.37035
89 133 4.42549
90 133 4.49078
91 133 4.55643
92 133 4.61591
93 133 4.67385
94 133 4.73344
95 133 4.7935
96 133 4.85108
97 133 4.90804
98 133 4.9655
99 133 5.0224
100 133 5.07927
101 133 5.13647
102 133 5.19323
103 133 5.24918
104 133 5.3043
105 133 5.35713
106 133 5.40823
107 133 5.45717
108 133 5.50228
109 133 5.54424
110 133 5.7101
111 133 6.01921
112 133 6.32138
113 133 6.61652
114 133 6.91978
115 133 7.22901
116 133 7.54037
117 133 7.85357
118 133 8.16738
119 133 8.48203
120 133 8.79771
121 133 9.11455
122 133 8.74599
123 133 8.37642
124 133 8.00947
125 133 7.64624
126 133 7.28693
127 133 6.93378
128 133 6.58534
129 133 6.23157
130 133 5.87209
131 133 5.50804
132 133 5.47639
133 133 5.44151
134 133 5.4041
135 133 5.36378
136 133 5.32257
137 133 5.28082
138 133 5.24084
139 133 5.20271
140 133 5.16734
141 133 5.13318
142 133 5.09934
143 133 5.06595
144 133 5.03367
145 133 5.00434
146 133 4.97517
147 133 4.94232
148 133 4.90909
149 133 4.88037
150 133 4.85501
151 133 4.8129
152 133 4.76327
153 133 4.71657
154 133 4.68772
155 133 4.68593
156 133 4.63278
157 133 4.57229
158 133 4.53777
159 133 4.63464
160 133 4.52266
161 133 4.4001
162 133 4.25183
163 133 3.99074
164 133 3.80809
165 133 3.64252
166 133 3.468
167 133 3.26532
168 133 3.07956
169 133 2.90534
170 133 2.73283
171 133 2.55183
172 133 2.35878
173 133 2.16734
174 133 1.9782
175 133 1.78693
176 133 1.59256
177 133 1.39864
178 133 1.20565
179 133 1.01175
180 133 0.817364
181 133 0.62289
182 133 0.427456
183 133 0.229968
184 133 0.0327969
185 133 -0.163834
186 133 -0.359982
187 133 -0.557234
188 133 -0.754643
189 133 -0.952256
190 133 -1.1501
191 133 -1.34893
192 133 -1.54754
193 133 -1.74904
194 133 -1.95073
195 133 -2.1531
196 133 -2.35525
197 133 -2.55754
198 133 -2.75989
199 133 -2.96283
200 133 -3.16547
201 133 -3.36768
202 133 -3.57103
203 133 -3.77641
204 133 -3.98351
205 133 -4.19025
206 133 -4.39805
207 133 -4.60601
212 133 -10.4607
213 133 -10.4607
214 133 -10.4607
215 133 -10.4607
216 133 -10.4607
217 133 -10.4607
218 133 -10.4607
219 133 -10.4607
220 133 -10.4607
221 133 -10.4607
222 133 -10.4607
223 133 -10.4607
224 133 -10.4607
225 133 -10.4607
226 133 -10.4607
227 133 -10.4607
228 133 -10.4607
229 133 -10.4607
230 133 -10.4607
231 133 -10.4607
232 133 -10.4607
233 133 -10.4607
234 133 -10.4607
235 133 -10.4607
236 133 -10.4607
237 133 -10.4607
238 133 -10.4607
1 134 -10.4607
2 134 -10.4607
3 134 -10.4607
4 134 -10.4607
5 134 -10.4607
6 134 -10.4607
7 134 -10.4607
8 134 -10.4607
9 134 -10.4607
10 134 -10.4607
11 134 -10.4607
12 134 -10.4607
13 134 -10.4607
14 134 -10.4607
15 134 -10.4607
16 134 -10.4607
17 134 -10.4607
18 134 -10.4607
19 134 -10.4607
20 134 -10.4607
21 134 -10.4607
22 134 -10.4607
23 134 -10.4607
24 134 -10.4607
25 134 -10.4607
26 134 -10.4607
27 134 -10.4607
28 134 -10.4607
33 134 -6.81949
34 134 -6.5846
35 134 -6.34911
36 134 -6.1136
37 134 -5.87876
38 134 -5.64356
39 134 -5.40839
40 134 -5.17392
41 134 -4.93931
42 134 -4.7052
43 134 -4.47236
44 134 -4.23883
45 134 -4.00711
46 134 -3.77482
47 134 -3.54365
48 134 -3.3145
49 134 -3.08486
50 134 -2.85522
51 134 -2.62632
52 134 -2.39717
53 134 -2.16813
54 134 -1.9398
55 134 -1.71215
56 134 -1.48499
57 134 -1.25885
58 134 -1.0323
59 134 -0.806293
60 134 -0.582376
61 134 -0.358321
62 134 -0.13597
63 134 0.0862325
64 134 0.304712
65 134 0.518131
66 134 0.732943
67 134 0.952515
68 134 1.17522
69 134 1.39052
70 134 1.60364
71 134 1.82453
72 134 2.06589
73 134 2.27358
74 134 2.46725
75 134 2.67845
76 134 2.99011
77 134 3.16698
78 134 3.30944
79 134 3.42431
80 134 3.44657
81 134 3.4921
82 134 3.57584
83 134 3.65638
84 134 3.71199
85 134 3.76867
86 134 3.83649
87 134 3.90362
88 134 3.96423
89 134 4.02456
90 134 4.08681
91 134 4.14964
92 134 4.211
93 134 4.271
94 134 4.33056
95 134 4.39044
96 134 4.44822
97 134 4.50545
98 134 4.56305
99 134 4.62002
100 134 4.67742
101 134 4.73561
102 134 4.79371
103 134 4.85126
104 134 4.90938
105 134 4.96508
106 134 5.01719
107 134 5.06685
108 134 5.11237
109 134 5.28255
110 134 5.59795
111 134 5.90939
112 134 6.21692
113 134 6.52234
114 134 6.8295
115 134 7.13988
116 134 7.45273
117 134 7.76647
118 134 8.08168
119 134 8.39732
120 134 8.71424
121 134 9.03259
122 134 8.66551
123 134 8.29744
124 134 7.93183
125 134 7.56926
126 134 7.20963
127 134 6.85306
128 134 6.49837
129 134 6.14174
130 134 5.78209
131 134 5.41926
132 134 5.05345
133 134 5.01973
134 134 4.9831
135 134 4.94198
136 134 4.89876
137 134 4.85571
138 134 4.81495
139 134 4.77725
140 134 4.74133
141 134 4.70745
142 134 4.67445
143 134 4.64226
144 134 4.6114
145 134 4.581
146 134 4.55118
147 134 4.52085
148 134 4.48953
149 134 4.45946
150 134 4.4297
151 134 4.39374
152 134 4.35525
153 134 4.31787
154 134 4.28775
155 134 4.26415
156 134 4.22738
157 134 4.18959
158 134 4.16465
159 134 4.16326
160 134 4.11034
161 134 4.04708
162 134 4.01131
163 134 4.10521
164 134 3.99039
165 134 3.86633
166 134 3.71627
167 134 3.4557
168 134 3.2758
169 134 3.11772
170 134 2.95985
171 134 2.78582
172 134 2.57831
173 134 2.38496
174 134 2.19907
175 134 2.00934
176 134 1.81174
177 134 1.61641
178 134 1.42387
179 134 1.23015
180 134 1.03468
181 134 0.838913
182 134 0.644086
183 134 0.446798
184 134 0.249606
185 134 0.0531649
186 134 -0.142685
187 134 -0.339029
188 134 -0.535991
189 134 -0.733535
190 134 -0.931762
191 134 -1.13101
192 134 -1.33034
193 134 -1.5301
194 134 -1.73276
195 134 -1.93558
196 134 -2.13793
197 134 -2.3397
198 134 -2.54276
199 134 -2.74596
200 134 -2.9488
201 134 -3.15146
202 134 -3.35506
203 134 -3.55964
204 134 -3.76707
205 134 -3.97443
206 134 -4.18263
207 134 -4.39077
208 134 -4.59869
213 134 -10.4607
214 134 -10.4607
215 134 -10.4607
216 134 -10.4607
217 134 -10.4607
218 134 -10.4607
219 134 -10.4607
220 134 -10.4607
221 134 -10.4607
222 134 -10.4607
223 134 -10.4607
224 134 -10.4607
225 134 -10.4607
226 134 -10.4607
227 134 -10.4607
228 134 -10.4607
229 134 -10.4607
230 134 -10.4607
231 134 -10.4607
232 134 -10.4607
233 134 -10.4607
234 134 -10.4607
235 134 -10.4607
236 134 -10.4607
237 134 -10.4607
238 134 -10.4607
1 135 -10.4607
2 135 -10.4607
3 135 -10.4607
4 135 -10.4607
5 135 -10.4607
6 135 -10.4607
7 135 -10.4607
8 135 -10.4607
9 135 -10.4607
10 135 -10.4607
11 135 -10.4607
12 135 -10.4607
13 135 -10.4607
14 135 -10.4607
15 135 -10.4607
16 135 -10.4607
17 135 -10.4607
18 135 -10.4607
19 135 -10.4607
20 135 -10.4607
21 135 -10.4607
22 135 -10.4607
23 135 -10.4607
24 135 -10.4607
25 135 -10.4607
26 135 -10.4607
27 135 -10.4607
32 135 -6.90879
33 135 -6.6719
34 135 -6.43504
35 135 -6.1988
36 135 -5.96192
37 135 -5.72631
38 135 -5.49052
39 135 -5.25401
40 135 -5.01898
41 135 -4.78427
42 135 -4.54915
43 135 -4.31502
44 135 -4.08139
45 135 -3.84786
46 135 -3.61536
47 135 -3.38429
48 135 -3.15333
49 135 -2.92303
50 135 -2.69203
51 135 -2.46238
52 135 -2.23268
53 135 -2.00237
54 135 -1.77321
55 135 -1.54404
56 135 -1.31563
57 135 -1.08923
58 135 -0.86163
59 135 -0.633764
60 135 -0.409596
61 135 -0.18631
62 135 0.0393008
63 135 0.266376
64 135 0.482304
65 135 0.689943
66 135 0.897618
67 135 1.11793
68 135 1.35899
69 135 1.567
70 135 1.76252
71 135 1.97538
72 135 2.28763
73 135 2.46819
74 135 2.61397
75 135 2.7323
76 135 2.76181
77 135 2.81145
78 135 2.89846
79 135 2.98205
80 135 3.04082
81 135 3.10035
82 135 3.17083
83 135 3.24159
84 135 3.30489
85 135 3.36703
86 135 3.43189
87 135 3.496
88 135 3.55837
89 135 3.62049
90 135 3.68225
91 135 3.74433
92 135 3.80621
93 135 3.86685
94 135 3.92635
95 135 3.98564
96 135 4.04364
97 135 4.1014
98 135 4.15998
99 135 4.2172
100 135 4.27477
101 135 4.33357
102 135 4.393
103 135 4.45399
104 135 4.51559
105 135 4.57466
106 135 4.62985
107 135 4.67936
108 135 4.85291
109 135 5.17281
110 135 5.48976
111 135 5.80333
112 135 6.11457
113 135 6.42488
114 135 6.73602
115 135 7.04827
116 135 7.36235
117 135 7.67789
118 135 7.99402
119 135 8.31132
120 135 8.62935
121 135 8.9489
122 135 8.58296
123 135 8.21599
124 135 7.85114
125 135 7.48876
126 135 7.12831
127 135 6.77
128 135 6.41229
129 135 6.05447
130 135 5.6948
131 135 5.33299
132 135 4.96877
133 135 4.60104
134 135 4.5641
135 135 4.5212
136 135 4.47305
137 135 4.42724
138 135 4.38493
139 135 4.34752
140 135 4.31218
141 135 4.27913
142 135 4.24765
143 135 4.21619
144 135 4.18615
145 135 4.15599
146 135 4.1266
147 135 4.09763
148 135 4.06763
149 135 4.03842
150 135 4.00807
151 135 3.97603
152 135 3.94337
153 135 3.91083
154 135 3.88145
155 135 3.853
156 135 3.82191
157 135 3.79128
158 135 3.76496
159 135 3.74232
160 135 3.70584
161 135 3.66548
162 135 3.6384
163 135 3.6345
164 135 3.57807
165 135 3.5128
166 135 3.47364
167 135 3.56545
168 135 3.45025
169 135 3.3299
170 135 3.20211
171 135 3.04864
172 135 2.78372
173 135 2.59514
174 135 2.42287
175 135 2.23964
176 135 2.02795
177 135 1.83139
178 135 1.64239
179 135 1.45031
180 135 1.25108
181 135 1.05402
182 135 0.860483
183 135 0.663553
184 135 0.465682
185 135 0.269593
186 135 0.0742209
187 135 -0.120918
188 135 -0.316743
189 135 -0.514114
190 135 -0.713281
191 135 -0.913006
192 135 -1.1127
193 135 -1.31222
194 135 -1.5155
195 135 -1.71852
196 135 -1.92115
197 135 -2.12345
198 135 -2.32637
199 135 -2.52943
200 135 -2.73229
201 135 -2.93517
202 135 -3.13934
203 135 -3.34466
204 135 -3.5507
205 135 -3.75863
206 135 -3.96728
207 135 -4.17572
208 135 -4.38373
209 135 -4.59277
214 135 -10.4607
215 135 -10.4607
216 135 -10.4607
217 135 -10.4607
218 135 -10.4607
219 135 -10.4607
220 135 -10.4607
221 135 -10.4607
222 135 -10.4607
223 135 -10.4607
224 135 -10.4607
225 135 -10.4607
226 135 -10.4607
227 135 -10.4607
228 135 -10.4607
229 135 -10.4607
230 135 -10.4607
231 135 -10.4607
232 135 -10.4607
233 135 -10.4607
234 135 -10.4607
235 135 -10.4607
236 135 -10.4607
237 135 -10.4607
238 135 -10.4607
1 136 -10.4607
2 136 -10.4607
3 136 -10.4607
4 136 -10.4607
5 136 -10.4607
6 136 -10.4607
7 136 -10.4607
8 136 -10.4607
9 136 -10.4607
10 136 -10.4607
11 136 -10.4607
12 136 -10.4607
13 136 -10.4607
14 136 -10.4607
15 136 -10.4607
16 136 -10.4607
17 136 -10.4607
18 136 -10.4607
19 136 -10.4607
20 136 -10.4607
21 136 -10.4607
22 136 -10.4607
23 136 -10.4607
24 136 -10.4607
25 136 -10.4607
26 136 -10.4607
31 136 -6.99941
32 136 -6.7619
33 136 -6.5243
34 136 -6.28607
35 136 -6.04912
36 136 -5.81202
37 136 -5.57474
38 136 -5.3382
39 136 -5.10151
40 136 -4.86521
41 136 -4.62963
42 136 -4.3933
43 136 -4.15825
44 136 -3.92387
45 136 -3.68878
46 136 -3.45629
47 136 -3.22482
48 136 -2.99272
49 136 -2.76189
50 136 -2.53062
51 136 -2.29922
52 136 -2.06881
53 136 -1.83859
54 136 -1.60731
55 136 -1.37626
56 136 -1.14814
57 136 -0.92112
58 136 -0.692022
59 136 -0.458749
60 136 -0.235936
61 136 -0.0166217
62 136 0.211896
63 136 0.457667
64 136 0.668184
65 136 0.860508
66 136 1.04966
67 136 1.2615
68 136 1.5746
69 136 1.75598
70 136 1.90405
71 136 2.02563
72 136 2.05767
73 136 2.11093
74 136 2.20249
75 136 2.28997
76 136 2.35341
77 136 2.41735
78 136 2.49091
79 136 2.5646
80 136 2.63152
81 136 2.69658
82 136 2.76446
83 136 2.83306
84 136 2.89821
85 136 2.96265
86 136 3.02682
87 136 3.09013
88 136 3.15277
89 136 3.21556
90 136 3.27739
91 136 3.3392
92 136 3.40143
93 136 3.46207
94 136 3.52237
95 136 3.58088
96 136 3.63931
97 136 3.69776
98 136 3.75541
99 136 3.81294
100 136 3.87103
101 136 3.92964
102 136 3.99
103 136 4.05485
104 136 4.12431
105 136 4.18813
106 136 4.24491
107 136 4.42295
108 136 4.74578
109 136 5.06586
110 136 5.38356
111 136 5.69943
112 136 6.01316
113 136 6.32643
114 136 6.64006
115 136 6.95485
116 136 7.27033
117 136 7.58704
118 136 7.905
119 136 8.22324
120 136 8.54293
121 136 8.86351
122 136 8.49839
123 136 8.13197
124 136 7.76753
125 136 7.40524
126 136 7.0444
127 136 6.68518
128 136 6.32689
129 136 5.96906
130 136 5.60964
131 136 5.24915
132 136 4.887
133 136 4.52157
134 136 4.15107
135 136 4.10568
136 136 4.045
137 136 3.99359
138 136 3.95126
139 136 3.91432
140 136 3.88075
141 136 3.84925
142 136 3.81917
143 136 3.78867
144 136 3.75962
145 136 3.7302
146 136 3.70162
147 136 3.67375
148 136 3.64494
149 136 3.6171
150 136 3.58815
151 136 3.55892
152 136 3.52971
153 136 3.50063
154 136 3.47276
155 136 3.44449
156 136 3.41601
157 136 3.38803
158 136 3.36161
159 136 3.33455
160 136 3.30284
161 136 3.27062
162 136 3.24171
163 136 3.21631
164 136 3.17589
165 136 3.1317
166 136 3.10003
167 136 3.09122
168 136 3.02831
169 136 2.94794
170 136 2.87106
171 136 2.82483
172 136 2.91097
173 136 2.789
174 136 2.65674
175 136 2.49839
176 136 2.22901
177 136 2.0381
178 136 1.86308
179 136 1.67763
180 136 1.46409
181 136 1.26559
182 136 1.07469
183 136 0.881249
184 136 0.679975
185 136 0.483127
186 136 0.289992
187 136 0.0978795
188 136 -0.096589
189 136 -0.295062
190 136 -0.495136
191 136 -0.695036
192 136 -0.895219
193 136 -1.09613
194 136 -1.29849
195 136 -1.50187
196 136 -1.70471
197 136 -1.90747
198 136 -2.11056
199 136 -2.31312
200 136 -2.51575
201 136 -2.71873
202 136 -2.9237
203 136 -3.12896
204 136 -3.33427
205 136 -3.54296
206 136 -3.75214
207 136 -3.96112
208 136 -4.16988
209 136 -4.37942
210 136 -4.58881
215 136 -10.4607
216 136 -10.4607
217 136 -10.4607
218 136 -10.4607
219 136 -10.4607
220 136 -10.4607
221 136 -10.4607
222 136 -10.4607
223 136 -10.4607
224 136 -10.4607
225 136 -10.4607
226 136 -10.4607
227 136 -10.4607
228 136 -10.4607
229 136 -10.4607
230 136 -10.4607
231 136 -10.4607
232 136 -10.4607
233 136 -10.4607
234 136 -10.4607
235 136 -10.4607
236 136 -10.4607
237 136 -10.4607
238 136 -10.4607
1 137 -10.4607
2 137 -10.4607
3 137 -10.4607
4 137 -10.4607
5 137 -10.4607
6 137 -10.4607
7 137 -10.4607
8 137 -10.4607
9 137 -10.4607
10 137 -10.4607
11 137 -10.4607
12 137 -10.4607
13 137 -10.4607
14 137 -10.4607
15 137 -10.4607
16 137 -10.4607
17 137 -10.4607
18 137 -10.4607
19 137 -10.4607
20 137 -10.4607
21 137 -10.4607
22 137 -10.4607
23 137 -10.4607
24 137 -10.4607
25 137 -10.4607
30 137 -7.09548
31 137 -6.85558
32 137 -6.61588
33 137 -6.37731
34 137 -6.13884
35 137 -5.9003
36 137 -5.66228
37 137 -5.42365
38 137 -5.18634
39 137 -4.94941
40 137 -4.71191
41 137 -4.47573
42 137 -4.23926
43 137 -4.00282
44 137 -3.76705
45 137 -3.53218
46 137 -3.29878
47 137 -3.06597
48 137 -2.83394
49 137 -2.60189
50 137 -2.36932
51 137 -2.13555
52 137 -1.90543
53 137 -1.67585
54 137 -1.4424
55 137 -1.20678
56 137 -0.979872
57 137 -0.75709
58 137 -0.526591
59 137 -0.276442
60 137 -0.059503
61 137 0.143863
62 137 0.36405
63 137 0.68349
64 137 0.872256
65 137 1.03104
66 137 1.1783
67 137 1.30261
68 137 1.33969
69 137 1.39584
70 137 1.49031
71 137 1.58155
72 137 1.6476
73 137 1.71536
74 137 1.79391
75 137 1.87166
76 137 1.94278
77 137 2.01245
78 137 2.08324
79 137 2.15392
80 137 2.2229
81 137 2.28998
82 137 2.35737
83 137 2.4252
84 137 2.49117
85 137 2.55691
86 137 2.62139
87 137 2.68492
88 137 2.74821
89 137 2.81037
90 137 2.87253
91 137 2.93487
92 137 2.99596
93 137 3.05646
94 137 3.11719
95 137 3.1762
96 137 3.23496
97 137 3.29363
98 137 3.35098
99 137 3.40813
100 137 3.46549
101 137 3.52239
102 137 3.58142
103 137 3.64808
104 137 3.73868
105 137 3.80864
106 137 3.99289
107 137 4.31885
108 137 4.64139
109 137 4.96113
110 137 5.2792
111 137 5.59615
112 137 5.91222
113 137 6.22743
114 137 6.54295
115 137 6.85936
116 137 7.17691
117 137 7.49494
118 137 7.81432
119 137 8.13369
120 137 8.45428
121 137 8.77618
122 137 8.41162
123 137 8.04577
124 137 7.68176
125 137 7.31968
126 137 6.95886
127 137 6.59944
128 137 6.24103
129 137 5.88322
130 137 5.52507
131 137 5.1665
132 137 4.80745
133 137 4.44668
134 137 4.08247
135 137 3.70545
136 137 3.60769
137 137 3.54915
138 137 3.5108
139 137 3.47776
140 137 3.44724
141 137 3.41794
142 137 3.3894
143 137 3.36099
144 137 3.33202
145 137 3.30358
146 137 3.27593
147 137 3.24912
148 137 3.22256
149 137 3.19543
150 137 3.16851
151 137 3.14178
152 137 3.11531
153 137 3.08922
154 137 3.06303
155 137 3.0362
156 137 3.00959
157 137 2.98325
158 137 2.95722
159 137 2.92998
160 137 2.90037
161 137 2.87049
162 137 2.84151
163 137 2.8115
164 137 2.77599
165 137 2.73807
166 137 2.70355
167 137 2.6711
168 137 2.62216
169 137 2.56378
170 137 2.50786
171 137 2.46866
172 137 2.45529
173 137 2.3911
174 137 2.31722
175 137 2.26959
176 137 2.35163
177 137 2.22675
178 137 2.09255
179 137 1.9328
180 137 1.66087
181 137 1.46739
182 137 1.29054
183 137 1.10499
184 137 0.88986
185 137 0.692064
186 137 0.504758
187 137 0.319049
188 137 0.126856
189 137 -0.0752927
190 137 -0.277152
191 137 -0.47677
192 137 -0.676998
193 137 -0.879486
