ply
format ascii 1.0
comment Created by Open3D
element vertex 3161
property double x
property double y
property double z
end_header
7 76 -457.046
8 76 -457.046
9 76 -457.046
10 76 -457.046
11 76 -457.046
12 76 -457.046
13 76 -457.046
14 76 -457.046
15 76 -457.046
16 76 -457.046
17 76 -457.046
18 76 -457.046
19 76 -457.046
20 76 -457.046
21 76 -457.046
22 76 -457.046
23 76 -457.046
24 76 -457.046
26 76 -22.0371
27 76 -20.0375
28 76 -18.7718
29 76 -17.5375
30 76 -16.3662
31 76 -15.3414
32 76 -14.3697
33 76 -13.4441
34 76 -12.5687
35 76 -11.7792
36 76 -11.0043
37 76 -10.2749
38 76 -9.53217
39 76 -8.82816
40 76 -8.19132
41 76 -7.58503
42 76 -7.03976
43 76 -6.5225
44 76 -6.04067
45 76 -5.58501
46 76 -5.13962
47 76 -4.75624
48 76 -4.38149
49 76 -4.01648
50 76 -3.65179
51 76 -3.33715
52 76 -3.05177
53 76 -2.8236
54 76 -2.64814
55 76 -2.49927
56 76 -2.39023
57 76 -2.33117
58 76 -2.30301
59 76 -2.2932
60 76 -2.29051
61 76 -2.25306
62 76 -2.19289
63 76 -2.13878
64 76 -2.07571
65 76 -1.97214
66 76 -1.8374
67 76 -1.75398
68 76 -1.71629
69 76 -1.71675
70 76 -1.76087
71 76 -1.86364
72 76 -1.99826
73 76 -2.20108
74 76 -2.40979
75 76 -2.63518
76 76 -3.04459
77 76 -3.5765
78 76 -4.17729
79 76 -4.85755
80 76 -5.62026
81 76 -6.40188
82 76 -7.12367
83 76 -7.76553
84 76 -8.3361
85 76 -8.83391
86 76 -9.35331
87 76 -9.91857
88 76 -10.5328
89 76 -11.2359
90 76 -12.0571
91 76 -13.0111
92 76 -14.1486
93 76 -15.7377
94 76 -18.1206
97 76 -457.046
98 76 -457.046
99 76 -457.046
100 76 -457.046
101 76 -457.046
102 76 -457.046
103 76 -457.046
104 76 -457.046
105 76 -457.046
106 76 -457.046
107 76 -457.046
108 76 -457.046
109 76 -457.046
110 76 -457.046
111 76 -457.046
112 76 -457.046
113 76 -457.046
114 76 -457.046
115 76 -457.046
116 76 -457.046
117 76 -457.046
118 76 -457.046
119 76 -457.046
0 77 -457.046
1 77 -457.046
2 77 -457.046
3 77 -457.046
4 77 -457.046
5 77 -457.046
6 77 -457.046
7 77 -457.046
8 77 -457.046
9 77 -457.046
10 77 -457.046
11 77 -457.046
12 77 -457.046
13 77 -457.046
14 77 -457.046
15 77 -457.046
16 77 -457.046
17 77 -457.046
18 77 -457.046
19 77 -457.046
20 77 -457.046
21 77 -457.046
22 77 -457.046
23 77 -457.046
24 77 -457.046
25 77 -457.046
26 77 -23.1864
27 77 -20.7312
28 77 -19.3602
29 77 -17.9968
30 77 -16.724
31 77 -15.6284
32 77 -14.5846
33 77 -13.596
34 77 -12.6638
35 77 -11.8054
36 77 -11.0164
37 77 -10.2557
38 77 -9.53363
39 77 -8.83578
40 77 -8.18614
41 77 -7.57389
42 77 -7.02982
43 77 -6.53177
44 77 -6.03913
45 77 -5.55762
46 77 -5.1397
47 77 -4.7677
48 77 -4.3959
49 77 -4.01586
50 77 -3.67045
51 77 -3.35816
52 77 -3.06147
53 77 -2.81541
54 77 -2.60832
55 77 -2.42288
56 77 -2.29558
57 77 -2.198
58 77 -2.14624
59 77 -2.15609
60 77 -2.16349
61 77 -2.15738
62 77 -2.13316
63 77 -2.08545
64 77 -2.02767
65 77 -1.95868
66 77 -1.86633
67 77 -1.71999
68 77 -1.65456
69 77 -1.63758
70 77 -1.67242
71 77 -1.76396
72 77 -1.89972
73 77 -2.07922
74 77 -2.26684
75 77 -2.42983
76 77 -2.76264
77 77 -3.30823
78 77 -3.92005
79 77 -4.63275
80 77 -5.39891
81 77 -6.17068
82 77 -6.92363
83 77 -7.59219
84 77 -8.21828
85 77 -8.73255
86 77 -9.28585
87 77 -9.89092
88 77 -10.543
89 77 -11.2213
90 77 -12.0643
91 77 -12.9762
92 77 -14.1032
93 77 -15.6101
94 77 -17.8258
97 77 -457.046
98 77 -457.046
99 77 -457.046
100 77 -457.046
101 77 -457.046
102 77 -457.046
103 77 -457.046
104 77 -457.046
105 77 -457.046
106 77 -457.046
107 77 -457.046
108 77 -457.046
109 77 -457.046
110 77 -457.046
111 77 -457.046
112 77 -457.046
113 77 -457.046
114 77 -457.046
115 77 -457.046
116 77 -457.046
117 77 -457.046
118 77 -457.046
119 77 -457.046
0 78 -457.046
1 78 -457.046
2 78 -457.046
3 78 -457.046
4 78 -457.046
5 78 -457.046
6 78 -457.046
7 78 -457.046
8 78 -457.046
9 78 -457.046
10 78 -457.046
11 78 -457.046
12 78 -457.046
13 78 -457.046
14 78 -457.046
15 78 -457.046
16 78 -457.046
17 78 -457.046
18 78 -457.046
19 78 -457.046
20 78 -457.046
21 78 -457.046
22 78 -457.046
23 78 -457.046
24 78 -457.046
25 78 -457.046
26 78 -24.3077
27 78 -21.5824
28 78 -20.1211
29 78 -18.5356
30 78 -17.1587
31 78 -15.9692
32 78 -14.8445
33 78 -13.7872
34 78 -12.803
35 78 -11.9011
36 78 -11.0537
37 78 -10.2613
38 78 -9.54191
39 78 -8.86022
40 78 -8.21636
41 78 -7.61636
42 78 -7.06027
43 78 -6.55543
44 78 -6.05104
45 78 -5.59436
46 78 -5.18198
47 78 -4.78511
48 78 -4.4364
49 78 -4.06854
50 78 -3.74328
51 78 -3.43784
52 78 -3.09905
53 78 -2.82129
54 78 -2.58336
55 78 -2.37885
56 78 -2.21215
57 78 -2.08905
58 78 -2.03283
59 78 -2.05439
60 78 -2.08331
61 78 -2.09159
62 78 -2.09987
63 78 -2.06333
64 78 -2.02795
65 78 -1.99863
66 78 -1.97354
67 78 -1.79731
68 78 -1.65251
69 78 -1.60122
70 78 -1.63002
71 78 -1.70372
72 78 -1.83213
73 78 -2.00913
74 78 -2.18153
75 78 -2.34058
76 78 -2.6199
77 78 -3.06269
78 78 -3.71409
79 78 -4.44666
80 78 -5.19902
81 78 -5.96375
82 78 -6.74677
83 78 -7.46531
84 78 -8.11771
85 78 -8.6757
86 78 -9.25306
87 78 -9.89245
88 78 -10.561
89 78 -11.2816
90 78 -12.1215
91 78 -13.0413
92 78 -14.1329
93 78 -15.6133
94 78 -17.6867
96 78 -457.046
97 78 -457.046
98 78 -457.046
99 78 -457.046
100 78 -457.046
101 78 -457.046
102 78 -457.046
103 78 -457.046
104 78 -457.046
105 78 -457.046
106 78 -457.046
107 78 -457.046
108 78 -457.046
109 78 -457.046
110 78 -457.046
111 78 -457.046
112 78 -457.046
113 78 -457.046
114 78 -457.046
115 78 -457.046
116 78 -457.046
117 78 -457.046
118 78 -457.046
119 78 -457.046
0 79 -457.046
1 79 -457.046
2 79 -457.046
3 79 -457.046
4 79 -457.046
5 79 -457.046
6 79 -457.046
7 79 -457.046
8 79 -457.046
9 79 -457.046
10 79 -457.046
11 79 -457.046
12 79 -457.046
13 79 -457.046
14 79 -457.046
15 79 -457.046
16 79 -457.046
17 79 -457.046
18 79 -457.046
19 79 -457.046
20 79 -457.046
21 79 -457.046
22 79 -457.046
23 79 -457.046
24 79 -457.046
25 79 -457.046
27 79 -22.4376
28 79 -20.8663
29 79 -19.1296
30 79 -17.6445
31 79 -16.3403
32 79 -15.1407
33 79 -14.0223
34 79 -12.9759
35 79 -12.0077
36 79 -11.1343
37 79 -10.3201
38 79 -9.58721
39 79 -8.90413
40 79 -8.25965
41 79 -7.67516
42 79 -7.11591
43 79 -6.62026
44 79 -6.13475
45 79 -5.65322
46 79 -5.24088
47 79 -4.86108
48 79 -4.51325
49 79 -4.15669
50 79 -3.84303
51 79 -3.52784
52 79 -3.18014
53 79 -2.8646
54 79 -2.59455
55 79 -2.35556
56 79 -2.14456
57 79 -2.01913
58 79 -1.97105
59 79 -1.96008
60 79 -2.02848
61 79 -2.05319
62 79 -2.05534
63 79 -2.06891
64 79 -2.07043
65 79 -2.12169
66 79 -2.15991
67 79 -2.02862
68 79 -1.79717
69 79 -1.67208
70 79 -1.63633
71 79 -1.6852
72 79 -1.81894
73 79 -1.98085
74 79 -2.1492
75 79 -2.32319
76 79 -2.53161
77 79 -2.93518
78 79 -3.55439
79 79 -4.31042
80 79 -5.04314
81 79 -5.79322
82 79 -6.55008
83 79 -7.31946
84 79 -7.99523
85 79 -8.6121
86 79 -9.22796
87 79 -9.88016
88 79 -10.5839
89 79 -11.3702
90 79 -12.2115
91 79 -13.1916
92 79 -14.34
93 79 -15.9412
94 79 -18.3345
96 79 -457.046
97 79 -457.046
98 79 -457.046
99 79 -457.046
100 79 -457.046
101 79 -457.046
102 79 -457.046
103 79 -457.046
104 79 -457.046
105 79 -457.046
106 79 -457.046
107 79 -457.046
108 79 -457.046
109 79 -457.046
110 79 -457.046
111 79 -457.046
112 79 -457.046
113 79 -457.046
114 79 -457.046
115 79 -457.046
116 79 -457.046
117 79 -457.046
118 79 -457.046
119 79 -457.046
0 80 -457.046
1 80 -457.046
2 80 -457.046
3 80 -457.046
4 80 -457.046
5 80 -457.046
6 80 -457.046
7 80 -457.046
8 80 -457.046
9 80 -457.046
10 80 -457.046
11 80 -457.046
12 80 -457.046
13 80 -457.046
14 80 -457.046
15 80 -457.046
16 80 -457.046
17 80 -457.046
18 80 -457.046
19 80 -457.046
20 80 -457.046
21 80 -457.046
22 80 -457.046
23 80 -457.046
24 80 -457.046
25 80 -457.046
26 80 -19.2877
27 80 -23.7814
28 80 -21.6296
29 80 -19.8079
30 80 -18.1711
31 80 -16.7795
32 80 -15.4784
33 80 -14.2701
34 80 -13.1716
35 80 -12.1681
36 80 -11.2835
37 80 -10.4425
38 80 -9.69203
39 80 -8.98744
40 80 -8.34557
41 80 -7.76596
42 80 -7.19934
43 80 -6.69281
44 80 -6.22219
45 80 -5.75449
46 80 -5.35067
47 80 -4.97362
48 80 -4.63285
49 80 -4.29706
50 80 -3.97977
51 80 -3.6248
52 80 -3.26131
53 80 -2.9163
54 80 -2.6116
55 80 -2.35187
56 80 -2.12567
57 80 -1.9875
58 80 -1.93277
59 80 -1.92338
60 80 -1.96547
61 80 -2.03395
62 80 -2.06829
63 80 -2.13229
64 80 -2.19361
65 80 -2.29702
66 80 -2.38262
67 80 -2.29809
68 80 -2.05934
69 80 -1.86673
70 80 -1.76306
71 80 -1.79068
72 80 -1.87456
73 80 -1.99953
74 80 -2.1618
75 80 -2.34938
76 80 -2.55791
77 80 -2.89793
78 80 -3.43861
79 80 -4.17668
80 80 -4.91614
81 80 -5.64438
82 80 -6.39782
83 80 -7.18067
84 80 -7.90065
85 80 -8.55643
86 80 -9.18768
87 80 -9.88622
88 80 -10.6312
89 80 -11.4403
90 80 -12.3743
91 80 -13.3844
92 80 -14.6125
93 80 -16.3618
94 80 -18.9512
96 80 -457.046
97 80 -457.046
98 80 -457.046
99 80 -457.046
100 80 -457.046
101 80 -457.046
102 80 -457.046
103 80 -457.046
104 80 -457.046
105 80 -457.046
106 80 -457.046
107 80 -457.046
108 80 -457.046
109 80 -457.046
110 80 -457.046
111 80 -457.046
112 80 -457.046
113 80 -457.046
114 80 -457.046
115 80 -457.046
116 80 -457.046
117 80 -457.046
118 80 -457.046
119 80 -457.046
0 81 -457.046
1 81 -457.046
2 81 -457.046
3 81 -457.046
4 81 -457.046
5 81 -457.046
6 81 -457.046
7 81 -457.046
8 81 -457.046
9 81 -457.046
10 81 -457.046
11 81 -457.046
12 81 -457.046
13 81 -457.046
14 81 -457.046
15 81 -457.046
16 81 -457.046
17 81 -457.046
18 81 -457.046
19 81 -457.046
20 81 -457.046
21 81 -457.046
22 81 -457.046
23 81 -457.046
24 81 -457.046
25 81 -457.046
27 81 -23.5682
28 81 -22.2245
29 81 -20.5613
30 81 -18.8047
31 81 -17.286
32 81 -15.8773
33 81 -14.5666
34 81 -13.4092
35 81 -12.3976
36 81 -11.4728
37 81 -10.6223
38 81 -9.83881
39 81 -9.10932
40 81 -8.46691
41 81 -7.88312
42 81 -7.32484
43 81 -6.82943
44 81 -6.33924
45 81 -5.877
46 81 -5.48675
47 81 -5.11815
48 81 -4.78262
49 81 -4.45068
50 81 -4.12097
51 81 -3.75947
52 81 -3.37224
53 81 -3.00186
54 81 -2.65377
55 81 -2.35751
56 81 -2.13084
57 81 -2.00301
58 81 -1.93793
59 81 -1.93625
60 81 -1.97908
61 81 -2.04557
62 81 -2.13457
63 81 -2.23797
64 81 -2.37841
65 81 -2.54276
66 81 -2.66759
67 81 -2.62358
68 81 -2.42044
69 81 -2.15654
70 81 -2.02449
71 81 -1.98995
72 81 -2.03005
73 81 -2.12467
74 81 -2.27049
75 81 -2.43445
76 81 -2.59841
77 81 -2.89965
78 81 -3.37017
79 81 -4.08666
80 81 -4.81265
81 81 -5.55173
82 81 -6.28762
83 81 -7.03252
84 81 -7.79651
85 81 -8.48798
86 81 -9.15544
87 81 -9.87493
88 81 -10.6722
89 81 -11.5388
90 81 -12.5533
91 81 -13.6193
92 81 -14.9703
93 81 -16.93
96 81 -457.046
97 81 -457.046
98 81 -457.046
99 81 -457.046
100 81 -457.046
101 81 -457.046
102 81 -457.046
103 81 -457.046
104 81 -457.046
105 81 -457.046
106 81 -457.046
107 81 -457.046
108 81 -457.046
109 81 -457.046
110 81 -457.046
111 81 -457.046
112 81 -457.046
113 81 -457.046
114 81 -457.046
115 81 -457.046
116 81 -457.046
117 81 -457.046
118 81 -457.046
119 81 -457.046
0 82 -457.046
1 82 -457.046
2 82 -457.046
3 82 -457.046
4 82 -457.046
5 82 -457.046
6 82 -457.046
7 82 -457.046
8 82 -457.046
9 82 -457.046
10 82 -457.046
11 82 -457.046
12 82 -457.046
13 82 -457.046
14 82 -457.046
15 82 -457.046
16 82 -457.046
17 82 -457.046
18 82 -457.046
19 82 -457.046
20 82 -457.046
21 82 -457.046
22 82 -457.046
23 82 -457.046
24 82 -457.046
25 82 -457.046
26 82 -457.046
27 82 -25.3326
28 82 -23.4707
29 82 -21.6097
30 82 -19.6246
31 82 -17.8731
32 82 -16.2924
33 82 -14.9011
34 82 -13.7021
35 82 -12.6414
36 82 -11.6881
37 82 -10.8219
38 82 -10.0304
39 82 -9.27979
40 82 -8.60498
41 82 -8.00978
42 82 -7.45469
43 82 -6.96898
44 82 -6.46863
45 82 -6.02838
46 82 -5.64889
47 82 -5.29719
48 82 -4.96868
49 82 -4.62603
50 82 -4.26111
51 82 -3.8833
52 82 -3.47951
53 82 -3.07497
54 82 -2.72536
55 82 -2.3965
56 82 -2.16426
57 82 -2.03447
58 82 -1.98205
59 82 -1.99393
60 82 -2.04106
61 82 -2.12057
62 82 -2.26393
63 82 -2.45053
64 82 -2.63531
65 82 -2.8307
66 82 -2.96703
67 82 -2.95497
68 82 -2.82883
69 82 -2.56526
70 82 -2.35209
71 82 -2.29593
72 82 -2.30567
73 82 -2.36228
74 82 -2.4457
75 82 -2.55846
76 82 -2.72745
77 82 -2.95646
78 82 -3.36838
79 82 -4.00896
80 82 -4.74354
81 82 -5.49187
82 82 -6.22496
83 82 -6.9567
84 82 -7.71797
85 82 -8.44425
86 82 -9.13267
87 82 -9.89129
88 82 -10.7413
89 82 -11.6451
90 82 -12.7046
91 82 -13.8681
92 82 -15.3152
93 82 -17.4668
96 82 -457.046
97 82 -457.046
98 82 -457.046
99 82 -457.046
100 82 -457.046
101 82 -457.046
102 82 -457.046
103 82 -457.046
104 82 -457.046
105 82 -457.046
106 82 -457.046
107 82 -457.046
108 82 -457.046
109 82 -457.046
110 82 -457.046
111 82 -457.046
112 82 -457.046
113 82 -457.046
114 82 -457.046
115 82 -457.046
116 82 -457.046
117 82 -457.046
118 82 -457.046
119 82 -457.046
0 83 -457.046
1 83 -457.046
2 83 -457.046
3 83 -457.046
4 83 -457.046
5 83 -457.046
6 83 -457.046
7 83 -457.046
8 83 -457.046
9 83 -457.046
10 83 -457.046
11 83 -457.046
12 83 -457.046
13 83 -457.046
14 83 -457.046
15 83 -457.046
16 83 -457.046
17 83 -457.046
18 83 -457.046
19 83 -457.046
20 83 -457.046
21 83 -457.046
22 83 -457.046
23 83 -457.046
24 83 -457.046
25 83 -457.046
26 83 -457.046
28 83 -25.0755
29 83 -22.8826
30 83 -20.5701
31 83 -18.6079
32 83 -16.7999
33 83 -15.2972
34 83 -14.0412
35 83 -12.9265
36 83 -11.9438
37 83 -11.0487
38 83 -10.2232
39 83 -9.47485
40 83 -8.79019
41 83 -8.175
42 83 -7.61923
43 83 -7.11523
44 83 -6.64525
45 83 -6.22043
46 83 -5.85277
47 83 -5.50653
48 83 -5.15823
49 83 -4.79637
50 83 -4.41587
51 83 -4.0273
52 83 -3.60483
53 83 -3.17306
54 83 -2.7911
55 83 -2.46117
56 83 -2.23887
57 83 -2.11107
58 83 -2.05734
59 83 -2.06255
60 83 -2.1163
61 83 -2.25245
62 83 -2.43455
63 83 -2.70154
64 83 -2.96506
65 83 -3.19786
66 83 -3.29884
67 83 -3.30443
68 83 -3.20066
69 83 -3.0071
70 83 -2.77841
71 83 -2.68297
72 83 -2.61588
73 83 -2.60322
74 83 -2.63087
75 83 -2.71005
76 83 -2.83827
77 83 -3.0665
78 83 -3.41109
79 83 -3.98519
80 83 -4.71116
81 83 -5.43753
82 83 -6.17526
83 83 -6.91824
84 83 -7.66131
85 83 -8.39549
86 83 -9.10248
87 83 -9.90884
88 83 -10.7744
89 83 -11.7497
90 83 -12.8288
91 83 -14.0791
92 83 -15.4841
93 83 -17.4891
95 83 -457.046
96 83 -457.046
97 83 -457.046
98 83 -457.046
99 83 -457.046
100 83 -457.046
101 83 -457.046
102 83 -457.046
103 83 -457.046
104 83 -457.046
105 83 -457.046
106 83 -457.046
107 83 -457.046
108 83 -457.046
109 83 -457.046
110 83 -457.046
111 83 -457.046
112 83 -457.046
113 83 -457.046
114 83 -457.046
115 83 -457.046
116 83 -457.046
117 83 -457.046
118 83 -457.046
119 83 -457.046
0 84 -457.046
1 84 -457.046
2 84 -457.046
3 84 -457.046
4 84 -457.046
5 84 -457.046
6 84 -457.046
7 84 -457.046
8 84 -457.046
9 84 -457.046
10 84 -457.046
11 84 -457.046
12 84 -457.046
13 84 -457.046
14 84 -457.046
15 84 -457.046
16 84 -457.046
17 84 -457.046
18 84 -457.046
19 84 -457.046
20 84 -457.046
21 84 -457.046
22 84 -457.046
23 84 -457.046
24 84 -457.046
25 84 -457.046
26 84 -457.046
27 84 -457.046
29 84 -24.6397
30 84 -21.7531
31 84 -19.3994
32 84 -17.4298
33 84 -15.8127
34 84 -14.436
35 84 -13.2798
36 84 -12.2611
37 84 -11.3392
38 84 -10.488
39 84 -9.71014
40 84 -9.0205
41 84 -8.39025
42 84 -7.81745
43 84 -7.3008
44 84 -6.85389
45 84 -6.40968
46 84 -6.06517
47 84 -5.72501
48 84 -5.36236
49 84 -4.97343
50 84 -4.58525
51 84 -4.16653
52 84 -3.74026
53 84 -3.31896
54 84 -2.9043
55 84 -2.59028
56 84 -2.37513
57 84 -2.24523
58 84 -2.17845
59 84 -2.15367
60 84 -2.22219
61 84 -2.38989
62 84 -2.66095
63 84 -3.00566
64 84 -3.36261
65 84 -3.63379
66 84 -3.67935
67 84 -3.64017
68 84 -3.56534
69 84 -3.48125
70 84 -3.2749
71 84 -3.06641
72 84 -2.91333
73 84 -2.79797
74 84 -2.78978
75 84 -2.8357
76 84 -2.94522
77 84 -3.14819
78 84 -3.49143
79 84 -3.99552
80 84 -4.68332
81 84 -5.41205
82 84 -6.15873
83 84 -6.90674
84 84 -7.62376
85 84 -8.37459
86 84 -9.11272
87 84 -9.9259
88 84 -10.8184
89 84 -11.842
90 84 -12.9619
91 84 -14.2115
92 84 -15.7242
93 84 -18.0142
95 84 -457.046
96 84 -457.046
97 84 -457.046
98 84 -457.046
99 84 -457.046
100 84 -457.046
101 84 -457.046
102 84 -457.046
103 84 -457.046
104 84 -457.046
105 84 -457.046
106 84 -457.046
107 84 -457.046
108 84 -457.046
109 84 -457.046
110 84 -457.046
111 84 -457.046
112 84 -457.046
113 84 -457.046
114 84 -457.046
115 84 -457.046
116 84 -457.046
117 84 -457.046
118 84 -457.046
119 84 -457.046
0 85 -457.046
1 85 -457.046
2 85 -457.046
3 85 -457.046
4 85 -457.046
5 85 -457.046
6 85 -457.046
7 85 -457.046
8 85 -457.046
9 85 -457.046
10 85 -457.046
11 85 -457.046
12 85 -457.046
13 85 -457.046
14 85 -457.046
15 85 -457.046
16 85 -457.046
17 85 -457.046
18 85 -457.046
19 85 -457.046
20 85 -457.046
21 85 -457.046
22 85 -457.046
23 85 -457.046
24 85 -457.046
25 85 -457.046
26 85 -457.046
27 85 -457.046
29 85 -26.6974
30 85 -23.0707
31 85 -20.3234
32 85 -18.1748
33 85 -16.4183
34 85 -14.9451
35 85 -13.7215
36 85 -12.668
37 85 -11.6972
38 85 -10.8191
39 85 -10.0209
40 85 -9.28061
41 85 -8.6494
42 85 -8.06979
43 85 -7.53468
44 85 -7.07615
45 85 -6.67435
46 85 -6.31937
47 85 -5.96024
48 85 -5.5716
49 85 -5.17482
50 85 -4.76231
51 85 -4.33052
52 85 -3.89569
53 85 -3.45424
54 85 -3.03241
55 85 -2.71634
56 85 -2.48255
57 85 -2.32208
58 85 -2.23985
59 85 -2.22061
60 85 -2.3226
61 85 -2.51472
62 85 -2.8106
63 85 -3.22177
64 85 -3.6652
65 85 -3.93218
66 85 -4.04023
67 85 -4.03621
68 85 -3.93531
69 85 -3.79989
70 85 -3.56931
71 85 -3.3572
72 85 -3.19156
73 85 -3.03433
74 85 -2.94307
75 85 -2.93395
76 85 -3.01973
77 85 -3.20781
78 85 -3.54534
79 85 -4.05577
80 85 -4.7053
81 85 -5.41271
82 85 -6.12975
83 85 -6.8358
84 85 -7.56161
85 85 -8.32098
86 85 -9.10174
87 85 -9.93255
88 85 -10.8562
89 85 -11.905
90 85 -13.0655
91 85 -14.3749
92 85 -16.0439
93 85 -18.5387
95 85 -457.046
96 85 -457.046
97 85 -457.046
98 85 -457.046
99 85 -457.046
100 85 -457.046
101 85 -457.046
102 85 -457.046
103 85 -457.046
104 85 -457.046
105 85 -457.046
106 85 -457.046
107 85 -457.046
108 85 -457.046
109 85 -457.046
110 85 -457.046
111 85 -457.046
112 85 -457.046
113 85 -457.046
114 85 -457.046
115 85 -457.046
116 85 -457.046
117 85 -457.046
118 85 -457.046
119 85 -457.046
0 86 -457.046
1 86 -457.046
2 86 -457.046
3 86 -457.046
4 86 -457.046
5 86 -457.046
6 86 -457.046
7 86 -457.046
8 86 -457.046
9 86 -457.046
10 86 -457.046
11 86 -457.046
12 86 -457.046
13 86 -457.046
14 86 -457.046
15 86 -457.046
16 86 -457.046
17 86 -457.046
18 86 -457.046
19 86 -457.046
20 86 -457.046
21 86 -457.046
22 86 -457.046
23 86 -457.046
24 86 -457.046
25 86 -457.046
26 86 -457.046
27 86 -457.046
30 86 -24.4457
31 86 -21.4273
32 86 -19.0345
33 86 -17.094
34 86 -15.5207
35 86 -14.21
36 86 -13.093
37 86 -12.0863
38 86 -11.1895
39 86 -10.361
40 86 -9.58865
41 86 -8.92563
42 86 -8.33066
43 86 -7.78634
44 86 -7.30666
45 86 -6.89797
46 86 -6.54119
47 86 -6.15657
48 86 -5.7528
49 86 -5.33663
50 86 -4.8938
51 86 -4.44129
52 86 -3.97497
53 86 -3.50776
54 86 -3.09819
55 86 -2.75476
56 86 -2.50171
57 86 -2.32425
58 86 -2.20873
59 86 -2.18112
60 86 -2.29384
61 86 -2.48415
62 86 -2.83176
63 86 -3.33088
64 86 -3.76351
65 86 -4.01555
66 86 -4.15398
67 86 -4.2092
68 86 -4.09596
69 86 -3.86783
70 86 -3.65675
71 86 -3.45626
72 86 -3.28342
73 86 -3.15821
74 86 -3.04606
75 86 -3.0136
76 86 -3.06955
77 86 -3.25187
78 86 -3.57406
79 86 -4.07077
80 86 -4.70548
81 86 -5.37215
82 86 -6.06615
83 86 -6.75685
84 86 -7.49221
85 86 -8.24885
86 86 -9.06879
87 86 -9.92486
88 86 -10.8584
89 86 -11.9191
90 86 -13.1236
91 86 -14.4323
92 86 -16.2798
93 86 -19.1216
95 86 -457.046
96 86 -457.046
97 86 -457.046
98 86 -457.046
99 86 -457.046
100 86 -457.046
101 86 -457.046
102 86 -457.046
103 86 -457.046
104 86 -457.046
105 86 -457.046
106 86 -457.046
107 86 -457.046
108 86 -457.046
109 86 -457.046
110 86 -457.046
111 86 -457.046
112 86 -457.046
113 86 -457.046
114 86 -457.046
115 86 -457.046
116 86 -457.046
117 86 -457.046
118 86 -457.046
119 86 -457.046
0 87 -457.046
1 87 -457.046
2 87 -457.046
3 87 -457.046
4 87 -457.046
5 87 -457.046
6 87 -457.046
7 87 -457.046
8 87 -457.046
9 87 -457.046
10 87 -457.046
11 87 -457.046
12 87 -457.046
13 87 -457.046
14 87 -457.046
15 87 -457.046
16 87 -457.046
17 87 -457.046
18 87 -457.046
19 87 -457.046
20 87 -457.046
21 87 -457.046
22 87 -457.046
23 87 -457.046
24 87 -457.046
25 87 -457.046
26 87 -457.046
27 87 -457.046
30 87 -26.0005
31 87 -22.4765
32 87 -19.9357
33 87 -17.8178
34 87 -16.1077
35 87 -14.6831
36 87 -13.5455
37 87 -12.4868
38 87 -11.5389
39 87 -10.6606
40 87 -9.86326
41 87 -9.16846
42 87 -8.55035
43 87 -7.97633
44 87 -7.4675
45 87 -7.04583
46 87 -6.66469
47 87 -6.26153
48 87 -5.84062
49 87 -5.39587
50 87 -4.92467
51 87 -4.45921
52 87 -3.95078
53 87 -3.48248
54 87 -3.07766
55 87 -2.74854
56 87 -2.45454
57 87 -2.25975
58 87 -2.12483
59 87 -2.07111
60 87 -2.13204
61 87 -2.30255
62 87 -2.67447
63 87 -3.20071
64 87 -3.59545
65 87 -3.86488
66 87 -3.9939
67 87 -4.03465
68 87 -3.95413
69 87 -3.75997
70 87 -3.54628
71 87 -3.34615
72 87 -3.16929
73 87 -3.05281
74 87 -2.96921
75 87 -2.94691
76 87 -3.02676
77 87 -3.21066
78 87 -3.52585
79 87 -4.00222
80 87 -4.62375
81 87 -5.28066
82 87 -5.93467
83 87 -6.64952
84 87 -7.38225
85 87 -8.18469
86 87 -9.00956
87 87 -9.88999
88 87 -10.8359
89 87 -11.8931
90 87 -13.1091
91 87 -14.4764
92 87 -16.4547
95 87 -457.046
96 87 -457.046
97 87 -457.046
98 87 -457.046
99 87 -457.046
100 87 -457.046
101 87 -457.046
102 87 -457.046
103 87 -457.046
104 87 -457.046
105 87 -457.046
106 87 -457.046
107 87 -457.046
108 87 -457.046
109 87 -457.046
110 87 -457.046
111 87 -457.046
112 87 -457.046
113 87 -457.046
114 87 -457.046
115 87 -457.046
116 87 -457.046
117 87 -457.046
118 87 -457.046
119 87 -457.046
0 88 -457.046
1 88 -457.046
2 88 -457.046
3 88 -457.046
4 88 -457.046
5 88 -457.046
6 88 -457.046
7 88 -457.046
8 88 -457.046
9 88 -457.046
10 88 -457.046
11 88 -457.046
12 88 -457.046
13 88 -457.046
14 88 -457.046
15 88 -457.046
16 88 -457.046
17 88 -457.046
18 88 -457.046
19 88 -457.046
20 88 -457.046
21 88 -457.046
22 88 -457.046
23 88 -457.046
24 88 -457.046
25 88 -457.046
26 88 -457.046
27 88 -457.046
28 88 -457.046
31 88 -23.5905
32 88 -20.7074
33 88 -18.5129
34 88 -16.6799
35 88 -15.1641
36 88 -13.9492
37 88 -12.8683
38 88 -11.8697
39 88 -10.947
40 88 -10.1064
41 88 -9.3756
42 88 -8.70175
43 88 -8.11275
44 88 -7.58978
45 88 -7.14823
46 88 -6.71579
47 88 -6.28603
48 88 -5.83908
49 88 -5.3653
50 88 -4.86239
51 88 -4.36719
52 88 -3.85273
53 88 -3.38786
54 88 -2.98903
55 88 -2.64571
56 88 -2.35834
57 88 -2.11699
58 88 -1.93079
59 88 -1.83123
60 88 -1.86387
61 88 -2.0207
62 88 -2.33636
63 88 -2.82574
64 88 -3.22834
65 88 -3.45929
66 88 -3.51888
67 88 -3.56738
68 88 -3.55812
69 88 -3.45436
70 88 -3.25572
71 88 -3.04087
72 88 -2.87209
73 88 -2.75588
74 88 -2.70935
75 88 -2.74675
76 88 -2.88399
77 88 -3.08401
78 88 -3.41191
79 88 -3.88974
80 88 -4.48923
81 88 -5.13293
82 88 -5.80397
83 88 -6.50153
84 88 -7.26035
85 88 -8.081
86 88 -8.9158
87 88 -9.84009
88 88 -10.7738
89 88 -11.8615
90 88 -13.0513
91 88 -14.4471
92 88 -16.4733
95 88 -457.046
96 88 -457.046
97 88 -457.046
98 88 -457.046
99 88 -457.046
100 88 -457.046
101 88 -457.046
102 88 -457.046
103 88 -457.046
104 88 -457.046
105 88 -457.046
106 88 -457.046
107 88 -457.046
108 88 -457.046
109 88 -457.046
110 88 -457.046
111 88 -457.046
112 88 -457.046
113 88 -457.046
114 88 -457.046
115 88 -457.046
116 88 -457.046
117 88 -457.046
118 88 -457.046
119 88 -457.046
0 89 -457.046
1 89 -457.046
2 89 -457.046
3 89 -457.046
4 89 -457.046
5 89 -457.046
6 89 -457.046
7 89 -457.046
8 89 -457.046
9 89 -457.046
10 89 -457.046
11 89 -457.046
12 89 -457.046
13 89 -457.046
14 89 -457.046
15 89 -457.046
16 89 -457.046
17 89 -457.046
18 89 -457.046
19 89 -457.046
20 89 -457.046
21 89 -457.046
22 89 -457.046
23 89 -457.046
24 89 -457.046
25 89 -457.046
26 89 -457.046
27 89 -457.046
28 89 -457.046
31 89 -24.7454
32 89 -21.3995
33 89 -19.0439
34 89 -17.1648
35 89 -15.5678
36 89 -14.2843
37 89 -13.1674
38 89 -12.1452
39 89 -11.1845
40 89 -10.3025
41 89 -9.52576
42 89 -8.83189
43 89 -8.21275
44 89 -7.64116
45 89 -7.17215
46 89 -6.71604
47 89 -6.25089
48 89 -5.76372
49 89 -5.26254
50 89 -4.71185
51 89 -4.19523
52 89 -3.69797
53 89 -3.24822
54 89 -2.84417
55 89 -2.48011
56 89 -2.18023
57 89 -1.92579
58 89 -1.70648
59 89 -1.55833
60 89 -1.52496
61 89 -1.63704
62 89 -1.90205
63 89 -2.29812
64 89 -2.73273
65 89 -2.98516
66 89 -3.02025
67 89 -2.95581
68 89 -2.91369
69 89 -2.85467
70 89 -2.71745
71 89 -2.54229
72 89 -2.41835
73 89 -2.35572
74 89 -2.36975
75 89 -2.47899
76 89 -2.65428
77 89 -2.89796
78 89 -3.22093
79 89 -3.70669
80 89 -4.3035
81 89 -4.93139
82 89 -5.61454
83 89 -6.33493
84 89 -7.0996
85 89 -7.93578
86 89 -8.80421
87 89 -9.74531
88 89 -10.7161
89 89 -11.7714
90 89 -12.9748
91 89 -14.4337
92 89 -16.451
94 89 -457.046
95 89 -457.046
96 89 -457.046
97 89 -457.046
98 89 -457.046
99 89 -457.046
100 89 -457.046
101 89 -457.046
102 89 -457.046
103 89 -457.046
104 89 -457.046
105 89 -457.046
106 89 -457.046
107 89 -457.046
108 89 -457.046
109 89 -457.046
110 89 -457.046
111 89 -457.046
112 89 -457.046
113 89 -457.046
114 89 -457.046
115 89 -457.046
116 89 -457.046
117 89 -457.046
118 89 -457.046
119 89 -457.046
0 90 -457.046
1 90 -457.046
2 90 -457.046
3 90 -457.046
4 90 -457.046
5 90 -457.046
6 90 -457.046
7 90 -457.046
8 90 -457.046
9 90 -457.046
10 90 -457.046
11 90 -457.046
12 90 -457.046
13 90 -457.046
14 90 -457.046
15 90 -457.046
16 90 -457.046
17 90 -457.046
18 90 -457.046
19 90 -457.046
20 90 -457.046
21 90 -457.046
22 90 -457.046
23 90 -457.046
24 90 -457.046
25 90 -457.046
26 90 -457.046
27 90 -457.046
28 90 -457.046
31 90 -26.01
32 90 -22.0273
33 90 -19.5296
34 90 -17.5627
35 90 -15.9175
36 90 -14.5585
37 90 -13.41
38 90 -12.3483
39 90 -11.3462
40 90 -10.4274
41 90 -9.63317
42 90 -8.89683
43 90 -8.24612
44 90 -7.64065
45 90 -7.14315
46 90 -6.64099
47 90 -6.12103
48 90 -5.60801
49 90 -5.04973
50 90 -4.46276
51 90 -3.96474
52 90 -3.49964
53 90 -3.07155
54 90 -2.66482
55 90 -2.3103
56 90 -1.99263
57 90 -1.71617
58 90 -1.4651
59 90 -1.28415
60 90 -1.21859
61 90 -1.27586
62 90 -1.41074
63 90 -1.69788
64 90 -2.0796
65 90 -2.36305
66 90 -2.48295
67 90 -2.41924
68 90 -2.33198
69 90 -2.26695
70 90 -2.18478
71 90 -2.05407
72 90 -1.92347
73 90 -1.91666
74 90 -1.96655
75 90 -2.13485
76 90 -2.35702
77 90 -2.63546
78 90 -2.98613
79 90 -3.46554
80 90 -4.06986
81 90 -4.68997
82 90 -5.3962
83 90 -6.13599
84 90 -6.90391
85 90 -7.75325
86 90 -8.61516
87 90 -9.57774
88 90 -10.5759
89 90 -11.6512
90 90 -12.9355
91 90 -14.5796
92 90 -16.9619
94 90 -457.046
95 90 -457.046
96 90 -457.046
97 90 -457.046
98 90 -457.046
99 90 -457.046
100 90 -457.046
101 90 -457.046
102 90 -457.046
103 90 -457.046
104 90 -457.046
105 90 -457.046
106 90 -457.046
107 90 -457.046
108 90 -457.046
109 90 -457.046
110 90 -457.046
111 90 -457.046
112 90 -457.046
113 90 -457.046
114 90 -457.046
115 90 -457.046
116 90 -457.046
117 90 -457.046
118 90 -457.046
119 90 -457.046
0 91 -457.046
1 91 -457.046
2 91 -457.046
3 91 -457.046
4 91 -457.046
5 91 -457.046
6 91 -457.046
7 91 -457.046
8 91 -457.046
9 91 -457.046
10 91 -457.046
11 91 -457.046
12 91 -457.046
13 91 -457.046
14 91 -457.046
15 91 -457.046
16 91 -457.046
17 91 -457.046
18 91 -457.046
19 91 -457.046
20 91 -457.046
21 91 -457.046
22 91 -457.046
23 91 -457.046
24 91 -457.046
25 91 -457.046
26 91 -457.046
27 91 -457.046
28 91 -457.046
29 91 -457.046
32 91 -22.8062
33 91 -19.8769
34 91 -17.8542
35 91 -16.1572
36 91 -14.7558
37 91 -13.5538
38 91 -12.4971
39 91 -11.4864
40 91 -10.5435
41 91 -9.68891
42 91 -8.92357
43 91 -8.21672
44 91 -7.59153
45 91 -7.04755
46 91 -6.5017
47 91 -5.93959
48 91 -5.35054
49 91 -4.7742
50 91 -4.19778
51 91 -3.7085
52 91 -3.28173
53 91 -2.86809
54 91 -2.47346
55 91 -2.10805
56 91 -1.78293
57 91 -1.4788
58 91 -1.22438
59 91 -1.02661
60 91 -0.919342
61 91 -0.910222
62 91 -1.00185
63 91 -1.20879
64 91 -1.49842
65 91 -1.74401
66 91 -1.89096
67 91 -1.92808
68 91 -1.86359
69 91 -1.8041
70 91 -1.76884
71 91 -1.65345
72 91 -1.52483
73 91 -1.48207
74 91 -1.53501
75 91 -1.69199
76 91 -1.9605
77 91 -2.2767
78 91 -2.66381
79 91 -3.15794
80 91 -3.7634
81 91 -4.41575
82 91 -5.11939
83 91 -5.90075
84 91 -6.68997
85 91 -7.53658
86 91 -8.40239
87 91 -9.34896
88 91 -10.3689
89 91 -11.4956
90 91 -12.8791
91 91 -14.8035
92 91 -18.0087
94 91 -457.046
95 91 -457.046
96 91 -457.046
97 91 -457.046
98 91 -457.046
99 91 -457.046
100 91 -457.046
101 91 -457.046
102 91 -457.046
103 91 -457.046
104 91 -457.046
105 91 -457.046
106 91 -457.046
107 91 -457.046
108 91 -457.046
109 91 -457.046
110 91 -457.046
111 91 -457.046
112 91 -457.046
113 91 -457.046
114 91 -457.046
115 91 -457.046
116 91 -457.046
117 91 -457.046
118 91 -457.046
119 91 -457.046
0 92 -457.046
1 92 -457.046
2 92 -457.046
3 92 -457.046
4 92 -457.046
5 92 -457.046
6 92 -457.046
7 92 -457.046
8 92 -457.046
9 92 -457.046
10 92 -457.046
11 92 -457.046
12 92 -457.046
13 92 -457.046
14 92 -457.046
15 92 -457.046
16 92 -457.046
17 92 -457.046
18 92 -457.046
19 92 -457.046
20 92 -457.046
21 92 -457.046
22 92 -457.046
23 92 -457.046
24 92 -457.046
25 92 -457.046
26 92 -457.046
27 92 -457.046
28 92 -457.046
29 92 -457.046
32 92 -23.7796
33 92 -20.1739
34 92 -18.0595
35 92 -16.3092
36 92 -14.8648
37 92 -13.6323
38 92 -12.5594
39 92 -11.5099
40 92 -10.5738
41 92 -9.69414
42 92 -8.88864
43 92 -8.15209
44 92 -7.48516
45 92 -6.89179
46 92 -6.29179
47 92 -5.68881
48 92 -5.08615
49 92 -4.4914
50 92 -3.93262
51 92 -3.48866
52 92 -3.06068
53 92 -2.64468
54 92 -2.24558
55 92 -1.88001
56 92 -1.53866
57 92 -1.24175
58 92 -0.961942
59 92 -0.754421
60 92 -0.615221
61 92 -0.572473
62 92 -0.626124
63 92 -0.773747
64 92 -1.01865
65 92 -1.2248
66 92 -1.3437
67 92 -1.40324
68 92 -1.42303
69 92 -1.41171
70 92 -1.38497
71 92 -1.30212
72 92 -1.23103
73 92 -1.15386
74 92 -1.18884
75 92 -1.32023
76 92 -1.53487
77 92 -1.84967
78 92 -2.26225
79 92 -2.78796
80 92 -3.44408
81 92 -4.11971
82 92 -4.83817
83 92 -5.59928
84 92 -6.40768
85 92 -7.25757
86 92 -8.12054
87 92 -9.05459
88 92 -10.0916
89 92 -11.2431
90 92 -12.6064
91 92 -14.5578
92 92 -18.0893
94 92 -457.046
95 92 -457.046
96 92 -457.046
97 92 -457.046
98 92 -457.046
99 92 -457.046
100 92 -457.046
101 92 -457.046
102 92 -457.046
103 92 -457.046
104 92 -457.046
105 92 -457.046
106 92 -457.046
107 92 -457.046
108 92 -457.046
109 92 -457.046
110 92 -457.046
111 92 -457.046
112 92 -457.046
113 92 -457.046
114 92 -457.046
115 92 -457.046
116 92 -457.046
117 92 -457.046
118 92 -457.046
119 92 -457.046
0 93 -457.046
1 93 -457.046
2 93 -457.046
3 93 -457.046
4 93 -457.046
5 93 -457.046
6 93 -457.046
7 93 -457.046
8 93 -457.046
9 93 -457.046
10 93 -457.046
11 93 -457.046
12 93 -457.046
13 93 -457.046
14 93 -457.046
15 93 -457.046
16 93 -457.046
17 93 -457.046
18 93 -457.046
19 93 -457.046
20 93 -457.046
21 93 -457.046
22 93 -457.046
23 93 -457.046
24 93 -457.046
25 93 -457.046
26 93 -457.046
27 93 -457.046
28 93 -457.046
29 93 -457.046
33 93 -20.512
34 93 -18.1461
35 93 -16.3843
36 93 -14.9097
37 93 -13.6714
38 93 -12.572
39 93 -11.4975
40 93 -10.5293
41 93 -9.66059
42 93 -8.81066
43 93 -8.03206
44 93 -7.31611
45 93 -6.66344
46 93 -6.01274
47 93 -5.40182
48 93 -4.80624
49 93 -4.21244
50 93 -3.68577
51 93 -3.23616
52 93 -2.78789
53 93 -2.36349
54 93 -1.99492
55 93 -1.61499
56 93 -1.28177
57 93 -0.981613
58 93 -0.69391
59 93 -0.473818
60 93 -0.321186
61 93 -0.2607
62 93 -0.270236
63 93 -0.399733
64 93 -0.606743
65 93 -0.771066
66 93 -0.876354
67 93 -0.936426
68 93 -0.974158
69 93 -1.01024
70 93 -1.03149
71 93 -0.996455
72 93 -0.955809
73 93 -0.875343
74 93 -0.879638
75 93 -0.975526
76 93 -1.15766
77 93 -1.47035
78 93 -1.88832
79 93 -2.41821
80 93 -3.07932
81 93 -3.78067
82 93 -4.52309
83 93 -5.29158
84 93 -6.10711
85 93 -6.93214
86 93 -7.80887
87 93 -8.72007
88 93 -9.7553
89 93 -10.8347
90 93 -12.1233
91 93 -13.9295
92 93 -17.2606
94 93 -457.046
95 93 -457.046
96 93 -457.046
97 93 -457.046
98 93 -457.046
99 93 -457.046
100 93 -457.046
101 93 -457.046
102 93 -457.046
103 93 -457.046
104 93 -457.046
105 93 -457.046
106 93 -457.046
107 93 -457.046
108 93 -457.046
109 93 -457.046
110 93 -457.046
111 93 -457.046
112 93 -457.046
113 93 -457.046
114 93 -457.046
115 93 -457.046
116 93 -457.046
117 93 -457.046
118 93 -457.046
119 93 -457.046
0 94 -457.046
1 94 -457.046
2 94 -457.046
3 94 -457.046
4 94 -457.046
5 94 -457.046
6 94 -457.046
7 94 -457.046
8 94 -457.046
9 94 -457.046
10 94 -457.046
11 94 -457.046
12 94 -457.046
13 94 -457.046
14 94 -457.046
15 94 -457.046
16 94 -457.046
17 94 -457.046
18 94 -457.046
19 94 -457.046
20 94 -457.046
21 94 -457.046
22 94 -457.046
23 94 -457.046
24 94 -457.046
25 94 -457.046
26 94 -457.046
27 94 -457.046
28 94 -457.046
29 94 -457.046
30 94 -457.046
33 94 -21.1675
34 94 -18.1955
35 94 -16.402
36 94 -14.95
37 94 -13.6585
38 94 -12.547
39 94 -11.474
40 94 -10.4593
41 94 -9.53463
42 94 -8.68025
43 94 -7.87453
44 94 -7.13236
45 94 -6.42932
46 94 -5.77322
47 94 -5.13278
48 94 -4.49898
49 94 -3.93127
50 94 -3.39676
51 94 -2.92513
52 94 -2.46781
53 94 -2.04648
54 94 -1.6779
55 94 -1.32234
56 94 -0.999132
57 94 -0.704209
58 94 -0.43028
59 94 -0.198328
60 94 -0.0442184
61 94 0.0194453
62 94 0.0414513
63 94 -0.0607594
64 94 -0.228691
65 94 -0.355882
66 94 -0.446277
67 94 -0.501396
68 94 -0.575929
69 94 -0.635039
70 94 -0.671628
71 94 -0.681444
72 94 -0.687264
73 94 -0.651022
74 94 -0.605195
75 94 -0.654972
76 94 -0.835881
77 94 -1.1172
78 94 -1.5243
79 94 -2.06067
80 94 -2.71513
81 94 -3.41507
82 94 -4.18342
83 94 -4.99164
84 94 -5.8356
85 94 -6.65748
86 94 -7.52122
87 94 -8.41038
88 94 -9.36934
89 94 -10.375
90 94 -11.5515
91 94 -13.1904
92 94 -16.1535
94 94 -457.046
95 94 -457.046
96 94 -457.046
97 94 -457.046
98 94 -457.046
99 94 -457.046
100 94 -457.046
101 94 -457.046
102 94 -457.046
103 94 -457.046
104 94 -457.046
105 94 -457.046
106 94 -457.046
107 94 -457.046
108 94 -457.046
109 94 -457.046
110 94 -457.046
111 94 -457.046
112 94 -457.046
113 94 -457.046
114 94 -457.046
115 94 -457.046
116 94 -457.046
117 94 -457.046
118 94 -457.046
119 94 -457.046
0 95 -457.046
1 95 -457.046
2 95 -457.046
3 95 -457.046
4 95 -457.046
5 95 -457.046
6 95 -457.046
7 95 -457.046
8 95 -457.046
9 95 -457.046
10 95 -457.046
11 95 -457.046
12 95 -457.046
13 95 -457.046
14 95 -457.046
15 95 -457.046
16 95 -457.046
17 95 -457.046
18 95 -457.046
19 95 -457.046
20 95 -457.046
21 95 -457.046
22 95 -457.046
23 95 -457.046
24 95 -457.046
25 95 -457.046
26 95 -457.046
27 95 -457.046
28 95 -457.046
29 95 -457.046
30 95 -457.046
33 95 -22.0067
34 95 -18.4364
35 95 -16.3257
36 95 -14.8766
37 95 -13.5813
38 95 -12.4641
39 95 -11.3667
40 95 -10.3372
41 95 -9.399
42 95 -8.49762
43 95 -7.66107
44 95 -6.90377
45 95 -6.1868
46 95 -5.49976
47 95 -4.82828
48 95 -4.20528
49 95 -3.58479
50 95 -3.02635
51 95 -2.5215
52 95 -2.06009
53 95 -1.64504
54 95 -1.30945
55 95 -0.987926
56 95 -0.700664
57 95 -0.423334
58 95 -0.153781
59 95 0.074852
60 95 0.231813
61 95 0.310471
62 95 0.336113
63 95 0.269044
64 95 0.125575
65 95 0.0382429
66 95 -0.058837
67 95 -0.138279
68 95 -0.215222
69 95 -0.277223
70 95 -0.347894
71 95 -0.385708
72 95 -0.375967
73 95 -0.384117
74 95 -0.346414
75 95 -0.383527
76 95 -0.507244
77 95 -0.782572
78 95 -1.16997
79 95 -1.71368
80 95 -2.36278
81 95 -3.0834
82 95 -3.85989
83 95 -4.68801
84 95 -5.53309
85 95 -6.38034
86 95 -7.20113
87 95 -8.04747
88 95 -8.92559
89 95 -9.86809
90 95 -11.0229
91 95 -12.5293
93 95 -457.046
94 95 -457.046
95 95 -457.046
96 95 -457.046
97 95 -457.046
98 95 -457.046
99 95 -457.046
100 95 -457.046
101 95 -457.046
102 95 -457.046
103 95 -457.046
104 95 -457.046
105 95 -457.046
106 95 -457.046
107 95 -457.046
108 95 -457.046
109 95 -457.046
110 95 -457.046
111 95 -457.046
112 95 -457.046
113 95 -457.046
114 95 -457.046
115 95 -457.046
116 95 -457.046
117 95 -457.046
118 95 -457.046
119 95 -457.046
0 96 -457.046
1 96 -457.046
2 96 -457.046
3 96 -457.046
4 96 -457.046
5 96 -457.046
6 96 -457.046
7 96 -457.046
8 96 -457.046
9 96 -457.046
10 96 -457.046
11 96 -457.046
12 96 -457.046
13 96 -457.046
14 96 -457.046
15 96 -457.046
16 96 -457.046
17 96 -457.046
18 96 -457.046
19 96 -457.046
20 96 -457.046
21 96 -457.046
22 96 -457.046
23 96 -457.046
24 96 -457.046
25 96 -457.046
26 96 -457.046
27 96 -457.046
28 96 -457.046
29 96 -457.046
30 96 -457.046
34 96 -18.7656
35 96 -16.3045
36 96 -14.7301
37 96 -13.4629
38 96 -12.3118
39 96 -11.1989
40 96 -10.1591
41 96 -9.2011
42 96 -8.28859
43 96 -7.44489
44 96 -6.6696
45 96 -5.94614
46 96 -5.20887
47 96 -4.54727
48 96 -3.7903
49 96 -3.14531
50 96 -2.55299
51 96 -2.03325
52 96 -1.58028
53 96 -1.18722
54 96 -0.878962
55 96 -0.592394
56 96 -0.353012
57 96 -0.122289
58 96 0.108906
59 96 0.330392
60 96 0.495066
61 96 0.58385
62 96 0.62517
63 96 0.582925
64 96 0.481923
65 96 0.397141
66 96 0.311942
67 96 0.242216
68 96 0.172402
69 96 0.0897868
70 96 0.0293529
71 96 -0.0508576
72 96 -0.0654314
73 96 -0.0709727
74 96 -0.0414804
75 96 -0.0823909
76 96 -0.207724
77 96 -0.45717
78 96 -0.823164
79 96 -1.39299
80 96 -2.04762
81 96 -2.76201
82 96 -3.55034
83 96 -4.41122
84 96 -5.26759
85 96 -6.06368
86 96 -6.80313
87 96 -7.56182
88 96 -8.35267
89 96 -9.23281
90 96 -10.4138
91 96 -12.5493
93 96 -457.046
94 96 -457.046
95 96 -457.046
96 96 -457.046
97 96 -457.046
98 96 -457.046
99 96 -457.046
100 96 -457.046
101 96 -457.046
102 96 -457.046
103 96 -457.046
104 96 -457.046
105 96 -457.046
106 96 -457.046
107 96 -457.046
108 96 -457.046
109 96 -457.046
110 96 -457.046
111 96 -457.046
112 96 -457.046
113 96 -457.046
114 96 -457.046
115 96 -457.046
116 96 -457.046
117 96 -457.046
118 96 -457.046
119 96 -457.046
0 97 -457.046
1 97 -457.046
2 97 -457.046
3 97 -457.046
4 97 -457.046
5 97 -457.046
6 97 -457.046
7 97 -457.046
8 97 -457.046
9 97 -457.046
10 97 -457.046
11 97 -457.046
12 97 -457.046
13 97 -457.046
14 97 -457.046
15 97 -457.046
16 97 -457.046
17 97 -457.046
18 97 -457.046
19 97 -457.046
20 97 -457.046
21 97 -457.046
22 97 -457.046
23 97 -457.046
24 97 -457.046
25 97 -457.046
26 97 -457.046
27 97 -457.046
28 97 -457.046
29 97 -457.046
30 97 -457.046
31 97 -457.046
34 97 -19.4063
35 97 -16.3683
36 97 -14.6116
37 97 -13.2934
38 97 -12.1137
39 97 -11.0049
40 97 -9.93642
41 97 -8.962
42 97 -8.04233
43 97 -7.20735
44 97 -6.42672
45 97 -5.64437
46 97 -4.93977
47 97 -4.09341
48 97 -3.26426
49 97 -2.55075
50 97 -1.96101
51 97 -1.41875
52 97 -0.988128
53 97 -0.634644
54 97 -0.371983
55 97 -0.13782
56 97 0.0951958
57 97 0.316002
58 97 0.539805
59 97 0.725409
60 97 0.877228
61 97 0.967711
62 97 0.987454
63 97 0.922432
64 97 0.83733
65 97 0.769208
66 97 0.677902
67 97 0.602682
68 97 0.544735
69 97 0.47643
70 97 0.408267
71 97 0.336746
72 97 0.277844
73 97 0.276993
74 97 0.306173
75 97 0.254786
76 97 0.102858
77 97 -0.150603
78 97 -0.525672
79 97 -1.07946
80 97 -1.75208
81 97 -2.47601
82 97 -3.25468
83 97 -4.14183
84 97 -4.99424
85 97 -5.74445
86 97 -6.42703
87 97 -7.05556
88 97 -7.68504
89 97 -8.3965
90 97 -9.45024
91 97 -11.659
93 97 -457.046
94 97 -457.046
95 97 -457.046
96 97 -457.046
97 97 -457.046
98 97 -457.046
99 97 -457.046
100 97 -457.046
101 97 -457.046
102 97 -457.046
103 97 -457.046
104 97 -457.046
105 97 -457.046
106 97 -457.046
107 97 -457.046
108 97 -457.046
109 97 -457.046
110 97 -457.046
111 97 -457.046
112 97 -457.046
113 97 -457.046
114 97 -457.046
115 97 -457.046
116 97 -457.046
117 97 -457.046
118 97 -457.046
119 97 -457.046
0 98 -457.046
1 98 -457.046
2 98 -457.046
3 98 -457.046
4 98 -457.046
5 98 -457.046
6 98 -457.046
7 98 -457.046
8 98 -457.046
9 98 -457.046
10 98 -457.046
11 98 -457.046
12 98 -457.046
13 98 -457.046
14 98 -457.046
15 98 -457.046
16 98 -457.046
17 98 -457.046
18 98 -457.046
19 98 -457.046
20 98 -457.046
21 98 -457.046
22 98 -457.046
23 98 -457.046
24 98 -457.046
25 98 -457.046
26 98 -457.046
27 98 -457.046
28 98 -457.046
29 98 -457.046
30 98 -457.046
31 98 -457.046
32 98 -457.046
34 98 -20.5801
35 98 -16.6581
36 98 -14.5386
37 98 -13.0845
38 98 -11.9385
39 98 -10.7967
40 98 -9.71177
41 98 -8.71717
42 98 -7.81028
43 98 -6.96757
44 98 -6.17655
45 98 -5.40128
46 98 -4.49235
47 98 -3.50326
48 98 -2.58581
49 98 -1.8524
50 98 -1.22889
51 98 -0.699771
52 98 -0.320799
53 98 -0.0199422
54 98 0.265081
55 98 0.497778
56 98 0.684703
57 98 0.874754
58 98 1.08192
59 98 1.27156
60 98 1.36416
61 98 1.37187
62 98 1.3602
63 98 1.2778
64 98 1.19515
65 98 1.11469
66 98 1.04037
67 98 0.967805
68 98 0.917898
69 98 0.859086
70 98 0.809023
71 98 0.741813
72 98 0.672198
73 98 0.65084
74 98 0.667422
75 98 0.608344
76 98 0.456135
77 98 0.194756
78 98 -0.207336
79 98 -0.741836
80 98 -1.42552
81 98 -2.17168
82 98 -2.97551
83 98 -3.87071
84 98 -4.778
85 98 -5.53618
86 98 -6.14148
87 98 -6.63031
88 98 -6.98547
89 98 -7.42135
90 98 -8.12466
92 98 -457.046
93 98 -457.046
94 98 -457.046
95 98 -457.046
96 98 -457.046
97 98 -457.046
98 98 -457.046
99 98 -457.046
100 98 -457.046
101 98 -457.046
102 98 -457.046
103 98 -457.046
104 98 -457.046
105 98 -457.046
106 98 -457.046
107 98 -457.046
108 98 -457.046
109 98 -457.046
110 98 -457.046
111 98 -457.046
112 98 -457.046
113 98 -457.046
114 98 -457.046
115 98 -457.046
116 98 -457.046
117 98 -457.046
118 98 -457.046
119 98 -457.046
0 99 -457.046
1 99 -457.046
2 99 -457.046
3 99 -457.046
4 99 -457.046
5 99 -457.046
6 99 -457.046
7 99 -457.046
8 99 -457.046
9 99 -457.046
10 99 -457.046
11 99 -457.046
12 99 -457.046
13 99 -457.046
14 99 -457.046
15 99 -457.046
16 99 -457.046
17 99 -457.046
18 99 -457.046
19 99 -457.046
20 99 -457.046
21 99 -457.046
22 99 -457.046
23 99 -457.046
24 99 -457.046
25 99 -457.046
26 99 -457.046
27 99 -457.046
28 99 -457.046
29 99 -457.046
30 99 -457.046
31 99 -457.046
32 99 -457.046
35 99 -17.1266
36 99 -14.554
37 99 -12.8688
38 99 -11.6806
39 99 -10.5283
40 99 -9.41464
41 99 -8.43834
42 99 -7.54834
43 99 -6.73186
44 99 -5.93849
45 99 -5.01921
46 99 -3.86561
47 99 -2.71138
48 99 -1.80696
49 99 -0.992054
50 99 -0.305755
51 99 0.198122
52 99 0.595851
53 99 0.901417
54 99 1.14097
55 99 1.33695
56 99 1.50534
57 99 1.65379
58 99 1.77577
59 99 1.82368
60 99 1.8611
61 99 1.78727
62 99 1.72511
63 99 1.63717
64 99 1.56105
65 99 1.47358
66 99 1.39998
67 99 1.32632
68 99 1.28291
69 99 1.22755
70 99 1.1862
71 99 1.13528
72 99 1.08501
73 99 1.03879
74 99 1.06018
75 99 0.999134
76 99 0.835952
77 99 0.560146
78 99 0.137964
79 99 -0.41828
80 99 -1.09039
81 99 -1.84931
82 99 -2.7177
83 99 -3.66618
84 99 -4.58644
85 99 -5.42932
86 99 -5.99853
87 99 -6.2444
88 99 -6.2525
89 99 -6.28672
90 99 -6.93184
92 99 -457.046
93 99 -457.046
94 99 -457.046
95 99 -457.046
96 99 -457.046
97 99 -457.046
98 99 -457.046
99 99 -457.046
100 99 -457.046
101 99 -457.046
102 99 -457.046
103 99 -457.046
104 99 -457.046
105 99 -457.046
106 99 -457.046
107 99 -457.046
108 99 -457.046
109 99 -457.046
110 99 -457.046
111 99 -457.046
112 99 -457.046
113 99 -457.046
114 99 -457.046
115 99 -457.046
116 99 -457.046
117 99 -457.046
118 99 -457.046
119 99 -457.046
0 100 -457.046
1 100 -457.046
2 100 -457.046
3 100 -457.046
4 100 -457.046
5 100 -457.046
6 100 -457.046
7 100 -457.046
8 100 -457.046
9 100 -457.046
10 100 -457.046
11 100 -457.046
12 100 -457.046
13 100 -457.046
14 100 -457.046
15 100 -457.046
16 100 -457.046
17 100 -457.046
18 100 -457.046
19 100 -457.046
20 100 -457.046
21 100 -457.046
22 100 -457.046
23 100 -457.046
24 100 -457.046
25 100 -457.046
26 100 -457.046
27 100 -457.046
28 100 -457.046
29 100 -457.046
30 100 -457.046
31 100 -457.046
32 100 -457.046
33 100 -457.046
35 100 -17.8215
36 100 -14.6648
37 100 -12.7613
38 100 -11.4402
39 100 -10.2538
40 100 -9.14035
41 100 -8.15429
42 100 -7.26047
43 100 -6.5219
44 100 -5.56146
45 100 -4.32213
46 100 -2.92257
47 100 -1.78658
48 100 -0.805933
49 100 0.0100225
50 100 0.67043
51 100 1.12001
52 100 1.47158
53 100 1.7611
54 100 1.96363
55 100 2.14499
56 100 2.27857
57 100 2.36112
58 100 2.404
59 100 2.38906
60 100 2.35313
61 100 2.23501
62 100 2.12712
63 100 2.00625
64 100 1.90722
65 100 1.8238
66 100 1.76822
67 100 1.70529
68 100 1.66298
69 100 1.60069
70 100 1.56424
71 100 1.52657
72 100 1.48993
73 100 1.47101
74 100 1.48594
75 100 1.40061
76 100 1.19545
77 100 0.882478
78 100 0.46128
79 100 -0.119146
80 100 -0.799662
81 100 -1.55438
82 100 -2.45176
83 100 -3.44966
84 100 -4.49537
85 100 -5.3921
86 100 -5.98484
87 100 -6.15548
88 100 -5.59633
89 100 -4.50372
90 100 -4.08473
92 100 -457.046
93 100 -457.046
94 100 -457.046
95 100 -457.046
96 100 -457.046
97 100 -457.046
98 100 -457.046
99 100 -457.046
100 100 -457.046
101 100 -457.046
102 100 -457.046
103 100 -457.046
104 100 -457.046
105 100 -457.046
106 100 -457.046
107 100 -457.046
108 100 -457.046
109 100 -457.046
110 100 -457.046
111 100 -457.046
112 100 -457.046
113 100 -457.046
114 100 -457.046
115 100 -457.046
116 100 -457.046
117 100 -457.046
118 100 -457.046
119 100 -457.046
0 101 -457.046
1 101 -457.046
2 101 -457.046
3 101 -457.046
4 101 -457.046
5 101 -457.046
6 101 -457.046
7 101 -457.046
8 101 -457.046
9 101 -457.046
10 101 -457.046
11 101 -457.046
12 101 -457.046
13 101 -457.046
14 101 -457.046
15 101 -457.046
16 101 -457.046
17 101 -457.046
18 101 -457.046
19 101 -457.046
20 101 -457.046
21 101 -457.046
22 101 -457.046
23 101 -457.046
24 101 -457.046
25 101 -457.046
26 101 -457.046
27 101 -457.046
28 101 -457.046
29 101 -457.046
30 101 -457.046
31 101 -457.046
32 101 -457.046
33 101 -457.046
36 101 -14.669
37 101 -12.6097
38 101 -11.2879
39 101 -10.023
40 101 -8.85036
41 101 -7.857
42 101 -7.04131
43 101 -6.23105
44 101 -4.84833
45 101 -3.19575
46 101 -1.78028
47 101 -0.649385
48 101 0.243747
49 101 0.983151
50 101 1.57961
51 101 1.98947
52 101 2.30324
53 101 2.55284
54 101 2.73441
55 101 2.85606
56 101 2.92351
57 101 2.94711
58 101 2.91485
59 101 2.83185
60 101 2.71747
61 101 2.56688
62 101 2.42477
63 101 2.32429
64 101 2.23191
65 101 2.17356
66 101 2.13093
67 101 2.07601
68 101 2.02433
69 101 1.98727
70 101 1.95942
71 101 1.9085
72 101 1.90834
73 101 1.89198
74 101 1.87249
75 101 1.76098
76 101 1.54098
77 101 1.2005
78 101 0.724927
79 101 0.157922
80 101 -0.533902
81 101 -1.31955
82 101 -2.22327
83 101 -3.26352
84 101 -4.41681
85 101 -5.59414
86 101 -6.38092
87 101 -6.59875
88 101 -5.50678
91 101 -457.046
92 101 -457.046
93 101 -457.046
94 101 -457.046
95 101 -457.046
96 101 -457.046
97 101 -457.046
98 101 -457.046
99 101 -457.046
100 101 -457.046
101 101 -457.046
102 101 -457.046
103 101 -457.046
104 101 -457.046
105 101 -457.046
106 101 -457.046
107 101 -457.046
108 101 -457.046
109 101 -457.046
110 101 -457.046
111 101 -457.046
112 101 -457.046
113 101 -457.046
114 101 -457.046
115 101 -457.046
116 101 -457.046
117 101 -457.046
118 101 -457.046
119 101 -457.046
0 102 -457.046
1 102 -457.046
2 102 -457.046
3 102 -457.046
4 102 -457.046
5 102 -457.046
6 102 -457.046
7 102 -457.046
8 102 -457.046
9 102 -457.046
10 102 -457.046
11 102 -457.046
12 102 -457.046
13 102 -457.046
14 102 -457.046
15 102 -457.046
16 102 -457.046
17 102 -457.046
18 102 -457.046
19 102 -457.046
20 102 -457.046
21 102 -457.046
22 102 -457.046
23 102 -457.046
24 102 -457.046
25 102 -457.046
26 102 -457.046
27 102 -457.046
28 102 -457.046
29 102 -457.046
30 102 -457.046
31 102 -457.046
32 102 -457.046
33 102 -457.046
36 102 -14.5876
37 102 -12.4534
38 102 -11.1629
39 102 -9.81921
40 102 -8.5652
41 102 -7.51834
42 102 -6.77577
43 102 -5.56761
44 102 -3.58164
45 102 -1.83836
46 102 -0.559283
47 102 0.46714
48 102 1.2557
49 102 1.91005
50 102 2.43078
51 102 2.78074
52 102 3.05417
53 102 3.25748
54 102 3.39381
55 102 3.46258
56 102 3.46402
57 102 3.44096
58 102 3.32843
59 102 3.16986
60 102 3.01561
61 102 2.88351
62 102 2.75907
63 102 2.65889
64 102 2.58263
65 102 2.53156
66 102 2.48795
67 102 2.45432
68 102 2.40575
69 102 2.37405
70 102 2.33997
71 102 2.30745
72 102 2.31372
73 102 2.26015
74 102 2.20344
75 102 2.0879
76 102 1.84698
77 102 1.48394
78 102 1.00502
79 102 0.399408
80 102 -0.308765
81 102 -1.11285
82 102 -2.05522
83 102 -3.15894
84 102 -4.4121
85 102 -5.84676
86 102 -7.26346
87 102 -8.34335
88 102 -8.11116
91 102 -457.046
92 102 -457.046
93 102 -457.046
94 102 -457.046
95 102 -457.046
96 102 -457.046
97 102 -457.046
98 102 -457.046
99 102 -457.046
100 102 -457.046
101 102 -457.046
102 102 -457.046
103 102 -457.046
104 102 -457.046
105 102 -457.046
106 102 -457.046
107 102 -457.046
108 102 -457.046
109 102 -457.046
110 102 -457.046
111 102 -457.046
112 102 -457.046
113 102 -457.046
114 102 -457.046
115 102 -457.046
116 102 -457.046
117 102 -457.046
118 102 -457.046
119 102 -457.046
0 103 -457.046
1 103 -457.046
2 103 -457.046
